ply
format ascii 1.0
element vertex 715
property float x
property float y
property float z
property uchar red
property uchar green
property uchar blue
end_header
-1.501787 0.825040 5.404772 230 228 221
-0.414185 0.542180 1.527411 131 126 116
-1.412951 0.700714 5.527772 229 227 218
-1.370980 0.613072 5.394221 232 230 219
-1.380677 0.709605 5.539275 151 151 136
-1.154385 0.409636 4.857641 146 142 127
-1.147160 0.965944 5.882701 216 213 207
-1.080431 0.996142 5.883474 74 73 65
-1.057459 1.039266 5.961214 206 203 196
-0.998719 0.931384 5.681559 223 221 213
-1.024799 1.169243 6.038221 245 242 232
-1.094318 1.794350 6.722026 151 146 133
-1.175288 2.050028 7.745473 223 219 207
-0.649844 1.420048 4.637315 132 128 117
-0.671787 1.504514 4.932194 130 126 116
-0.941406 1.700410 7.010903 243 239 230
-0.773250 1.895917 6.297404 132 126 114
-0.490258 2.286655 7.350877 80 77 55
-0.467003 2.163649 7.127965 211 207 192
-0.420281 2.228042 7.101796 46 42 23
-0.369217 2.191651 7.184508 157 154 139
0.197491 0.087676 3.936089 130 126 116
0.218357 0.145670 4.054546 179 177 167
0.227052 0.140496 3.990402 35 33 21
0.231187 0.115109 3.953503 53 51 40
0.298758 0.297929 4.073096 182 179 169
0.304564 0.279548 4.063767 40 38 29
0.315730 0.510826 4.100699 65 63 52
0.308491 0.241872 3.973360 44 41 30
0.324431 0.497342 4.123763 189 187 174
0.308282 0.288732 3.896466 68 65 55
0.318587 0.510571 4.005152 64 61 51
0.324610 0.512974 4.078686 106 103 92
0.336124 0.413352 3.996848 41 39 29
0.327519 0.182975 3.821809 183 180 169
0.354316 0.473723 3.865161 180 176 166
0.357189 0.477020 3.889320 180 177 165
0.360021 0.440406 3.923364 186 183 172
0.360021 0.440406 3.923364 188 185 174
0.358774 0.296414 3.884211 46 43 32
0.348329 0.170259 3.764713 62 60 49
0.348537 0.187861 3.740422 182 179 168
0.363551 0.419870 3.804862 31 29 18
0.363551 0.419870 3.804862 37 35 24
0.374956 0.386494 3.865546 181 179 168
0.377138 0.306584 3.832240 181 178 166
0.377138 0.306584 3.832240 183 180 169
0.364569 0.144684 3.669840 52 50 39
0.380283 0.245470 3.729630 182 179 168
0.374442 0.224295 3.635018 181 178 167
0.387550 0.196044 3.616281 174 172 162
0.387550 0.196044 3.616281 181 179 169
0.395603 0.176945 3.583899 41 38 27
0.394600 0.154912 3.553277 180 177 167
0.398895 0.214142 3.581623 185 183 171
0.398895 0.214142 3.581623 181 179 168
0.413401 0.211623 3.551061 36 33 21
0.414708 0.291854 3.546206 180 177 166
0.414368 0.193817 3.507035 33 30 16
0.407356 0.151497 3.441295 182 179 168
0.413321 0.204528 3.468339 186 183 170
0.420673 0.265914 3.521585 184 181 170
0.428127 0.303694 3.497859 187 184 172
0.419873 0.268124 3.417721 181 179 167
0.423730 0.231137 3.386006 180 177 166
0.427160 0.212351 3.393261 41 39 28
0.427160 0.212351 3.393261 51 48 36
0.432587 0.188379 3.416038 180 177 165
0.440883 0.247933 3.271675 192 189 178
0.445588 0.283399 3.165078 167 165 153
0.458183 0.159723 3.183959 39 35 22
0.454250 0.145613 2.956406 177 174 163
0.473559 0.160985 2.983229 166 164 150
0.477922 0.162851 3.007059 175 172 161
0.473115 0.149354 2.947371 166 164 153
0.474127 0.165267 2.932245 51 48 35
0.471175 0.153676 2.889037 39 36 25
0.481130 0.145455 2.826182 173 170 160
0.481130 0.145455 2.826182 169 167 156
0.481618 0.156061 2.746672 179 177 164
0.498782 0.136982 2.785693 173 171 159
0.489561 0.145601 2.697961 89 86 75
0.489561 0.145601 2.697961 84 82 70
0.485532 0.267795 3.484540 53 49 36
0.462722 0.148219 2.867159 100 98 86
0.457635 0.281018 3.561625 34 32 20
0.465845 0.260875 3.538594 72 70 60
0.448557 0.139263 2.866883 31 28 17
0.454633 0.160380 3.089672 175 173 161
0.454633 0.160380 3.089672 173 170 159
0.446409 0.268131 3.602228 36 33 21
0.448541 0.245469 3.567369 181 178 167
0.426190 0.270909 3.692415 38 36 24
0.325711 0.389433 3.737343 182 179 167
0.424330 0.218662 3.630255 41 38 27
0.413681 0.223201 3.692497 193 189 180
0.381941 0.282305 3.839916 181 179 167
0.384731 0.271923 3.825403 37 36 23
0.355669 0.285405 3.908293 178 176 165
0.402959 0.150805 3.489795 35 31 20
0.384652 0.133346 3.548406 32 30 19
0.308864 0.259238 3.966217 183 180 168
0.308864 0.259238 3.966217 181 179 167
0.310024 0.260168 3.981978 183 178 167
0.310024 0.260168 3.981978 178 176 166
0.304215 0.235746 3.993367 179 175 164
0.335863 0.184898 3.910275 179 176 165
0.286205 0.129122 3.840107 172 168 155
0.255552 0.146881 3.953259 178 175 164
0.257522 0.147943 3.984488 172 170 159
0.236084 0.129415 3.992828 156 153 142
0.226582 0.113888 4.011525 188 186 175
0.229256 0.100096 3.977793 37 34 24
0.233188 0.090350 3.937004 174 170 160
0.467555 0.275069 3.502475 189 186 175
0.328865 0.388516 3.471339 173 171 160
0.449044 0.287604 3.616741 181 179 167
0.259598 0.411840 3.304981 179 176 164
0.232452 0.402572 3.258429 105 102 92
0.276747 0.387580 3.517218 182 179 167
0.255035 0.117199 1.958802 185 181 170
0.444772 0.217694 3.620959 182 180 168
0.377151 0.306578 3.819692 176 173 163
0.420056 0.247453 3.735321 36 33 22
0.396034 0.255700 3.841967 186 184 173
0.372697 0.239247 3.792665 42 39 28
0.340021 0.246188 3.921636 41 37 27
0.340021 0.246188 3.921636 40 37 25
0.363438 0.151360 3.487187 34 31 21
0.308923 0.243047 3.975476 41 39 28
0.198106 0.132770 3.674714 177 174 163
0.212869 0.107378 3.592203 184 181 171
0.161257 0.084858 3.521023 185 183 172
0.505662 0.155897 2.801542 155 151 141
0.361314 0.347396 3.481971 39 37 25
0.355152 0.359512 3.651133 35 33 22
0.293467 0.444569 3.878397 82 77 65
0.459306 0.136180 3.146737 167 167 154
0.459306 0.136180 3.146737 164 161 149
0.320070 0.394128 3.882479 45 42 30
0.426387 0.192563 3.370327 182 180 169
0.365064 0.237829 3.732425 41 39 28
0.333571 0.283492 3.930134 179 177 166
0.327206 0.295965 4.038956 73 70 60
0.341834 0.210293 3.623240 171 169 157
0.398433 0.112844 3.656952 41 39 27
0.350419 0.312289 4.744960 178 175 164
0.288053 0.097406 4.381035 192 187 176
0.265135 0.076250 4.518169 179 178 167
0.238836 0.072975 4.581090 179 176 167
0.368706 0.126415 3.493616 176 174 164
0.368706 0.126415 3.493616 168 166 156
0.335526 0.282223 3.966645 181 179 168
0.307777 0.280514 4.062790 39 36 26
0.273570 0.181643 3.838435 59 57 46
0.283373 0.136931 3.921193 180 178 166
0.270068 0.161337 3.946880 37 34 23
0.258336 0.120466 3.925157 173 171 161
0.382456 0.231505 3.704727 177 175 165
0.162444 0.168699 2.412584 182 180 171
0.162444 0.168699 2.412584 179 177 167
0.167953 0.178942 2.535489 182 179 168
0.167953 0.178942 2.535489 182 180 169
0.345159 0.245290 4.726031 81 79 68
0.574751 0.165443 3.356526 45 44 32
0.582528 0.160565 3.433337 115 112 101
0.236190 0.353622 3.447471 176 173 161
0.330282 0.362191 3.474280 44 43 31
0.349855 0.189695 3.791739 170 168 156
0.294288 0.287553 3.850619 150 147 139
0.300810 0.253382 3.843951 178 176 165
0.277674 0.278539 3.875465 53 49 41
-1.968039 2.456149 5.365985 161 153 70
-1.856130 1.068016 5.071753 64 66 56
-1.784929 0.958966 4.891522 52 52 46
-1.700112 0.889185 4.888367 32 33 28
-1.650949 0.746028 4.700638 124 122 106
-1.588938 0.762880 4.811116 38 39 33
-1.450703 0.637731 4.820981 144 143 133
-1.386013 0.611722 4.864757 234 230 220
-1.243379 0.765063 5.099186 206 203 190
-1.259333 0.615274 5.078123 74 74 64
0.156338 0.224432 1.934519 194 191 178
0.240936 0.141828 4.160495 136 135 121
0.323735 0.247315 3.343762 184 182 170
0.375813 0.237484 3.847899 171 169 158
-1.238495 0.706241 1.927179 231 227 214
-1.096847 0.521748 2.239665 230 227 219
-1.293686 0.483298 2.971223 219 219 201
-0.957995 0.371343 2.065698 234 234 229
-1.037963 1.609582 4.703418 239 238 227
-0.909067 0.420404 2.848618 106 105 94
-0.353925 1.567465 4.987158 36 33 18
0.323672 0.422962 3.498690 180 177 166
0.167680 0.084257 3.846358 181 178 167
0.375329 0.328224 3.447490 177 175 165
0.347025 0.190497 3.673553 71 69 57
0.408623 0.258906 3.573729 41 38 26
0.429075 0.294799 3.603501 57 55 44
0.419634 0.147292 3.837152 52 50 38
0.482239 0.261991 3.661868 108 106 95
0.591715 0.209162 3.814772 75 71 58
0.591715 0.209162 3.814772 75 71 58
0.682695 0.222680 3.976399 187 185 174
0.262420 0.312071 2.812619 42 38 28
0.421947 0.274502 3.532823 176 173 162
0.422633 0.213427 3.504306 180 177 166
0.398064 0.176064 3.613326 36 34 21
0.230298 0.130356 4.223431 170 167 157
0.311006 0.215090 2.843503 52 50 38
0.311006 0.215090 2.843503 56 54 43
0.330380 0.183107 3.828251 182 179 169
0.321117 0.150474 4.043201 59 56 45
0.408295 0.281624 3.666870 185 182 171
0.472707 0.206965 3.752720 189 187 175
0.222715 0.081951 4.587418 51 47 36
0.319615 0.269964 3.959534 36 33 23
0.330956 0.280391 3.939479 183 181 170
0.364726 0.230030 3.711121 24 22 10
0.350955 0.448770 4.020321 37 34 24
0.385865 0.147607 3.462725 180 178 168
0.367304 0.424596 3.844694 40 37 26
0.412931 0.206398 3.471068 180 177 165
0.401941 0.401145 3.714880 185 183 170
0.318894 0.270227 3.949783 24 24 13
0.314303 0.373146 4.068536 191 187 174
0.348181 0.447242 3.987878 40 37 27
0.435344 0.269005 3.406438 33 30 18
0.541018 0.162815 3.208564 168 165 152
0.423691 0.250656 3.491369 38 30 21
0.423691 0.250656 3.491369 53 46 36
0.327142 0.403718 3.756230 41 38 26
0.370016 0.270921 3.711417 44 42 29
0.395878 0.200973 3.607022 44 39 28
0.278616 0.118100 4.055296 36 33 22
0.389279 0.254533 3.643822 25 23 12
0.365646 0.169599 3.724801 180 176 167
0.211822 0.071798 4.193298 59 56 46
0.671670 0.210646 3.754607 187 184 172
0.234321 0.121765 4.290490 51 47 39
0.244394 0.117127 4.200603 178 174 162
0.138512 0.064514 1.120967 33 30 17
0.386804 0.201355 3.638974 185 184 174
0.386804 0.201355 3.638974 184 182 172
0.445839 0.117050 2.918622 55 51 40
0.449058 0.285063 3.894077 39 37 25
0.380755 0.211862 3.964895 39 36 24
0.390420 0.349386 3.952127 52 48 37
0.342081 0.322464 3.951710 208 203 191
0.224520 0.086638 3.987710 36 30 19
0.224520 0.086638 3.987710 36 30 19
0.372823 0.210099 3.880589 73 68 57
0.504049 0.122062 3.018603 184 179 168
0.368617 0.238339 3.761454 33 31 19
0.379641 0.154592 3.700635 181 178 168
0.293745 0.309714 3.591984 64 62 51
0.317036 0.315178 3.556440 73 71 61
0.867698 0.722896 7.395291 69 68 54
0.270165 0.142748 4.047840 178 175 164
0.400912 0.251232 3.676161 181 178 168
1.094306 -1.163296 2.963264 182 171 71
0.837390 -1.011748 2.455221 167 158 53
0.987054 -1.082115 3.222813 174 165 62
0.968924 0.203412 5.173387 67 64 53
0.716832 0.173899 4.177113 189 186 175
0.716832 0.173899 4.177113 187 185 175
0.499864 0.209708 3.879687 190 187 178
0.684769 0.343578 5.017703 46 44 33
0.679912 0.419013 5.156230 64 60 48
0.679912 0.419013 5.156230 73 68 57
0.277189 0.064889 2.734828 41 36 26
0.277189 0.064889 2.734828 41 36 25
0.296750 0.148048 3.157908 181 179 168
0.464820 0.324737 4.262918 66 62 50
0.464820 0.324737 4.262918 59 55 43
0.552304 0.445137 5.043909 75 70 57
0.173691 0.050855 2.603872 176 172 160
0.173691 0.050855 2.603872 177 175 162
0.626287 0.600111 6.054311 45 42 31
0.508074 0.504384 5.097964 157 155 143
0.187862 0.170287 2.922351 187 184 170
0.585257 0.630761 6.082016 187 185 173
0.555822 0.622872 5.913874 190 187 176
0.387964 0.115443 2.521428 53 51 39
0.388096 0.170295 3.765188 78 75 63
0.335735 0.271571 3.942036 45 42 30
0.338792 0.405101 3.856368 187 185 173
0.455039 0.122006 2.649638 69 65 52
0.301567 0.409221 3.694058 181 178 167
0.286444 0.389065 3.891355 185 182 170
0.349992 0.286660 4.055999 182 180 169
0.192866 0.081414 3.593679 172 169 159
0.106343 0.061692 3.351263 195 192 182
0.338196 0.185955 3.837800 183 181 171
0.255461 0.096673 4.031297 29 27 17
0.280465 0.273043 3.731342 117 115 104
0.246374 0.194355 4.098029 185 182 169
0.332850 0.195089 3.672354 178 175 163
-0.254741 -0.131511 -0.773439 187 181 136
0.276203 0.290550 4.122623 187 184 174
0.222987 0.068496 4.044530 184 181 168
0.338974 0.165245 3.960020 183 181 170
0.348842 0.180783 3.099675 47 45 35
0.401769 0.136886 3.749591 77 75 62
0.419719 0.142083 3.444504 180 178 163
0.311495 0.514101 4.010939 182 180 168
0.328461 0.438440 3.803578 43 41 29
0.443392 0.264207 3.494445 171 169 158
0.264954 0.130386 3.906904 46 41 27
0.366573 0.236617 3.751535 51 49 37
0.374093 0.267126 3.763749 52 50 39
0.376110 0.390376 3.879222 181 178 167
0.403384 0.242276 3.570414 85 82 69
0.472958 0.157346 3.256390 63 59 47
0.468458 0.186418 3.113157 169 166 153
0.477155 0.154446 2.910861 50 47 34
0.432547 0.162003 2.789730 170 168 156
0.266542 0.367811 3.671792 168 165 153
0.320497 0.272738 3.952722 42 40 30
0.380026 0.171427 3.562377 169 166 155
-0.897072 -0.233932 4.269010 235 231 223
-0.986029 -0.987870 4.156398 235 231 211
0.267211 0.375365 3.069053 92 89 77
0.185249 0.125563 3.863294 188 184 172
0.271376 0.195374 2.865773 62 60 48
0.292163 0.177975 3.475092 184 182 169
0.318933 0.229679 3.774105 192 189 178
0.265415 0.190691 2.927942 59 55 43
0.382568 0.272473 3.833052 62 58 46
0.311542 0.190319 2.995782 169 168 156
0.347757 0.367555 3.590630 42 40 29
0.471465 0.204785 3.186008 177 176 163
0.352750 0.167742 3.803597 47 45 33
0.385915 0.363159 3.711869 58 56 45
0.479749 0.236065 3.386246 185 183 172
0.414270 0.446978 4.094806 46 44 31
0.456918 0.311697 3.688301 51 48 37
0.650186 0.380452 5.379123 166 164 152
0.282971 0.176166 3.091218 177 176 166
0.378915 0.243180 3.733283 40 37 26
0.353701 0.346429 4.096314 184 182 172
0.230638 0.109028 3.736896 86 84 71
0.352867 0.449631 3.734911 42 39 27
-0.010856 0.716868 3.901082 152 149 135
-0.010856 0.716868 3.901082 152 149 135
0.457344 0.132428 2.939957 156 153 139
-1.260751 1.028310 6.275237 219 217 207
0.262287 0.153800 4.295439 48 44 29
0.326907 0.445263 4.326512 197 194 182
0.297143 0.141984 3.361631 47 44 31
0.483638 0.517709 4.474600 183 180 168
0.434824 0.125736 2.783449 48 46 34
0.557467 0.140803 3.432632 35 32 23
0.554740 0.127379 3.395777 169 165 157
0.296849 0.440285 3.830188 104 99 87
0.514243 0.156685 3.230886 174 171 162
0.498390 0.143889 3.258857 32 29 20
0.462569 0.224569 3.484277 29 27 16
0.393714 0.226238 3.634885 191 190 180
0.363228 0.167848 3.553478 54 52 41
0.367033 0.237167 3.750022 37 34 25
0.222333 0.339933 2.884718 70 67 56
0.174291 0.105105 1.554662 97 94 86
0.269304 0.116426 3.758304 184 182 170
0.318186 0.145506 3.983805 171 169 157
0.241623 0.101925 4.406605 175 173 162
0.979235 0.233595 5.907027 132 129 121
0.454272 0.149571 2.801102 96 90 78
0.411660 0.134113 2.853850 55 50 39
0.388363 0.157334 2.895974 61 58 49
0.513157 0.282646 3.600767 216 211 203
0.475069 0.219356 3.516691 190 186 177
0.254740 0.107554 2.690681 68 67 57
0.254740 0.107554 2.690681 74 72 62
0.692661 0.523444 6.135016 76 72 58
0.372999 0.159610 3.669126 181 179 168
0.399118 0.297741 3.886607 218 215 203
0.244415 0.189242 4.378826 172 169 157
0.279623 0.196861 2.791456 71 68 56
0.518967 0.215631 3.525958 74 71 61
0.145048 0.047162 3.136994 180 177 166
0.321631 0.186812 3.254878 69 65 56
0.434640 0.239382 3.686075 167 166 154
0.394317 0.157643 3.333512 176 174 163
0.335748 0.264228 4.215748 175 172 161
0.198237 0.147489 3.902726 71 69 59
0.431798 0.137859 3.725274 185 182 171
0.542010 0.186361 3.499078 174 171 160
0.389501 0.151783 3.347041 30 27 16
0.599128 0.280857 3.924269 38 35 23
0.165864 0.049358 3.793317 62 59 49
0.226327 0.130684 4.239355 36 34 24
0.260119 0.160936 4.140016 29 26 16
-0.214925 -0.203974 -0.649882 168 165 159
0.397933 0.107235 2.383410 188 186 177
0.363332 0.197324 3.637497 178 175 166
0.371745 0.225234 3.892682 182 178 169
0.469488 0.165761 3.974258 69 66 54
0.469488 0.165761 3.974258 60 58 46
0.531688 0.199770 3.845390 47 44 33
0.506965 0.193863 4.133903 169 165 152
0.442076 0.110908 2.519171 120 116 102
0.655786 0.296325 4.390879 205 202 193
0.610646 0.288813 4.312025 80 77 66
0.650644 0.519742 7.810151 54 50 39
0.623229 0.486605 7.243466 161 158 146
0.634423 0.442117 6.439704 97 93 82
0.786694 0.526513 5.735399 155 151 135
0.463282 0.267125 4.290271 170 166 154
0.411419 0.170158 3.263216 179 176 163
0.375321 0.109130 2.461253 149 145 133
0.363559 0.278877 2.758318 157 153 143
0.465296 0.158720 2.754025 164 158 148
0.317243 0.406090 3.599346 55 49 39
0.446151 0.146463 2.994477 29 26 15
0.357693 0.208855 3.875164 43 42 30
0.357693 0.208855 3.875164 49 48 36
0.306131 0.307695 4.229037 40 36 27
0.278575 0.272758 3.973735 179 178 168
0.275304 0.188006 3.990337 55 52 42
-0.802182 0.574556 5.334542 174 172 157
-0.802182 0.574556 5.334542 170 167 153
-1.175381 0.245766 4.629958 212 211 199
0.312681 0.310294 3.677941 182 180 170
0.325077 0.157653 3.794923 191 188 176
0.369968 0.236084 3.761427 25 23 12
0.319539 0.358659 3.234477 52 48 35
0.207692 0.118183 4.030847 30 29 19
0.292632 0.287481 4.087879 40 38 26
0.353749 0.283243 3.879991 192 189 177
0.488361 0.180073 3.034588 170 166 156
-0.832315 -3.553777 5.986677 133 124 25
-0.832315 -3.553777 5.986677 133 124 25
-1.293078 -1.597418 6.167613 151 151 138
-0.969346 -1.094222 6.080929 181 177 160
-0.791733 -0.906327 5.679950 248 246 233
0.282286 -2.570366 5.121159 108 100 3
0.193480 0.049053 4.046727 150 148 140
0.367560 0.136332 3.630379 37 35 25
0.266573 0.283862 4.110072 189 187 174
0.318410 0.473886 3.946110 164 159 147
0.478158 0.188991 5.160165 183 181 170
0.556314 0.105609 3.766871 39 37 25
-1.322981 0.060342 3.998934 228 226 219
-1.321288 0.004273 3.982709 222 222 217
-1.646453 -0.181837 4.116218 47 48 35
-1.646453 -0.181837 4.116218 44 44 33
-1.885895 -0.264719 3.979945 22 23 21
0.372415 0.098363 3.233903 42 40 29
0.372415 0.098363 3.233903 33 29 17
0.518626 0.125626 2.932065 153 148 137
0.507710 0.138837 2.914862 175 172 159
0.172949 0.065208 3.491490 46 42 33
0.204478 0.133686 3.870674 170 168 155
0.284471 0.192145 3.997335 194 192 180
0.295326 0.182503 3.881303 181 178 164
0.375353 0.333862 3.941960 180 178 166
0.299392 0.163667 0.796884 108 102 55
-1.616789 -1.803111 5.981941 171 166 126
-1.304880 -0.551299 6.453568 233 230 224
-0.916429 -0.951934 5.530956 191 187 173
-0.784708 -0.841270 5.206532 244 241 228
0.172963 0.029983 3.878084 182 179 167
0.178300 0.054615 3.931912 52 50 39
0.214430 0.166153 4.143698 173 169 158
0.333087 0.150524 3.376144 28 26 17
-1.969841 -0.309538 6.660144 225 220 213
-0.948697 -0.351791 4.325581 240 238 224
-1.658930 0.483010 7.532547 119 116 107
-1.000421 0.959510 7.153475 233 227 219
0.347685 0.140011 3.577619 149 146 136
0.399335 0.448061 4.142440 170 167 157
0.441239 0.268133 3.391953 139 137 125
0.402057 0.232166 3.712275 185 184 174
-1.045031 -0.314936 4.704278 138 136 130
-1.045031 -0.314936 4.704278 138 136 130
0.368111 0.199841 3.732043 188 185 174
0.416826 0.228518 3.560155 176 174 162
-1.103778 -0.394443 4.747723 173 172 159
0.217534 0.068959 3.911823 180 178 168
0.183834 0.047680 3.940038 161 160 151
0.371275 0.121908 3.479474 174 171 160
0.394693 0.120657 3.409133 166 164 152
0.470271 0.141701 2.863345 150 148 136
-1.059267 -1.256299 4.767122 32 32 19
0.495099 0.157271 2.803150 182 177 166
0.272314 0.301237 3.239785 100 99 90
0.315195 0.081848 3.657316 190 188 175
0.413317 0.211209 3.484052 193 192 180
0.426961 0.248778 3.427617 185 183 172
0.356891 0.229986 3.850215 41 38 30
-0.167178 -0.228375 -0.346469 165 161 147
0.393970 0.135470 5.476072 94 93 83
0.393970 0.135470 5.476072 101 96 85
0.179628 0.037926 1.465390 189 186 174
0.232209 0.088624 2.041835 192 189 177
0.286412 0.392738 3.561711 159 155 144
0.275081 0.188030 2.744500 159 157 146
0.471368 0.321423 3.530930 82 80 67
0.052577 -0.621215 1.658019 232 225 216
0.146645 -1.210567 1.907732 238 235 225
0.160435 -1.208879 1.856483 50 47 34
0.753957 -0.866887 1.751337 222 222 212
1.326960 -1.732907 2.587993 26 29 24
1.263728 -1.479217 2.204160 21 24 17
0.359097 0.375502 3.710456 171 169 161
0.422036 0.236392 3.253985 163 160 150
0.405446 0.228775 3.154010 177 175 163
0.384262 0.124014 3.639956 42 40 30
0.464381 0.183421 2.964256 166 163 152
0.376939 0.291410 3.320435 183 180 169
0.487809 0.138951 3.032864 64 61 49
0.417752 0.127247 2.664073 35 34 22
0.292785 0.083078 5.178495 174 171 161
0.410834 0.216015 3.925842 27 24 13
0.250568 0.149446 1.867599 188 187 175
0.406153 0.217888 2.879187 189 188 176
0.403994 0.260990 3.909628 183 181 170
0.261595 0.059405 2.586806 107 101 91
0.299821 0.245057 3.847064 171 169 160
0.420220 0.272601 3.942554 175 171 161
0.324249 0.139206 3.397549 97 93 86
-0.083638 -0.643365 1.358224 223 220 206
-0.037637 -0.682159 1.307409 54 49 38
0.650742 -0.393138 1.508850 214 212 203
0.477364 0.257220 3.280018 173 171 159
0.448203 0.243519 3.102200 176 175 163
-0.096158 -0.498471 0.540805 238 235 230
-0.118191 -0.464614 0.507474 93 90 78
-0.102384 -0.445647 0.514174 108 105 91
-0.137875 -0.364117 0.432124 199 195 182
-0.172059 -0.279122 0.362732 49 44 32
-0.069721 -0.377962 0.509914 172 168 159
-0.070852 -0.346067 0.498059 40 36 25
-0.073505 -0.342783 0.501724 202 200 189
-0.073694 -0.341997 0.498178 199 198 186
-0.071187 -0.339587 0.499064 38 37 24
0.550293 -0.750365 1.242370 230 229 222
0.388931 -0.553360 1.062522 69 67 62
0.391235 -0.518999 1.305011 226 224 216
0.475720 -0.563211 1.153822 232 229 220
0.532973 -0.496200 1.205740 216 215 211
0.607027 -0.485923 1.411512 219 218 212
0.648323 -0.487473 1.467155 195 195 185
0.625595 -0.374472 1.472732 214 215 206
0.654603 -0.381171 1.557059 227 226 215
0.658620 -0.345386 1.555167 221 218 206
0.351719 0.391034 3.852870 168 166 156
0.429773 0.244607 3.259800 28 25 14
0.492680 0.131286 2.873943 84 81 73
0.498811 0.164638 2.994770 180 178 169
0.392202 0.352505 3.507974 175 173 162
0.511588 0.155358 2.943858 64 62 51
0.242607 0.308914 4.258502 182 180 167
0.323770 0.303863 3.634039 186 184 172
0.351790 0.225528 3.637977 54 53 42
0.146022 0.116395 1.446446 173 171 161
0.165138 0.118450 1.594629 179 175 166
0.211268 0.125649 1.944481 167 163 155
0.307170 0.248767 3.312376 39 37 24
0.336756 0.465791 4.051220 61 59 47
0.312571 0.306903 2.999574 190 188 175
0.622076 0.182081 3.870642 177 175 165
0.387061 0.256897 4.942783 190 188 175
0.314243 0.280503 4.021074 187 184 173
0.312320 0.497462 3.975865 55 53 41
0.243934 0.359679 3.006582 185 181 168
0.172017 0.101744 3.646291 174 172 160
0.304467 0.241377 3.941439 55 50 39
0.379051 0.231061 3.470377 190 188 176
0.379051 0.231061 3.470377 188 186 174
0.437262 0.162935 3.695411 179 177 164
0.412677 0.282079 3.334314 27 24 12
0.379918 0.367597 3.486655 39 37 25
0.398139 0.378013 3.642884 55 53 41
0.358680 0.121847 2.765442 167 163 149
0.220243 0.083245 3.729665 159 156 146
0.438676 0.241851 3.399700 18 15 4
0.365383 0.252468 3.933983 45 44 32
0.363070 0.278436 3.945172 53 52 40
0.363070 0.278436 3.945172 53 52 40
0.316331 0.238401 3.588964 170 168 158
0.479477 0.270962 3.229683 192 189 176
0.312814 0.275283 3.997407 183 181 170
0.419422 0.412222 3.932411 180 177 166
0.371594 0.204285 2.602634 189 187 175
0.298384 -1.465203 4.718348 63 59 45
0.430332 0.239703 3.309449 187 184 173
0.303589 0.256929 3.740108 27 24 15
0.313721 0.265273 3.430169 54 51 41
0.293568 0.291838 3.066229 98 96 86
0.339297 0.247846 3.057312 113 110 101
0.362985 0.232129 2.668310 44 42 30
0.151169 0.075175 3.279672 188 186 175
0.480521 0.162324 2.941131 185 182 172
0.243128 0.048039 4.263968 177 175 163
0.629580 0.191019 4.297359 36 33 22
0.348211 0.268399 3.649064 63 60 47
0.258507 0.178347 4.147538 38 36 22
0.258507 0.178347 4.147538 38 36 22
0.291075 0.314014 3.766635 36 34 22
0.337822 0.435615 3.920060 34 32 20
0.335511 0.362523 3.709398 202 200 189
0.391732 0.186480 3.689630 39 36 24
0.806588 0.371999 5.461382 192 190 178
0.319644 0.277015 3.941228 24 22 10
0.401485 0.294758 3.438233 182 180 168
0.258823 0.200787 2.776156 186 184 172
0.292393 0.058556 5.055796 185 183 173
0.431607 0.249356 3.439263 41 40 29
0.308811 0.272815 3.330307 185 183 171
0.271602 0.379963 3.036057 182 181 169
0.346394 0.136857 3.056213 25 23 11
0.318975 0.132881 3.195858 181 179 167
0.476814 0.512759 5.445083 183 181 169
0.025810 -0.225111 3.271628 76 72 44
0.045776 -0.249326 3.265757 214 210 193
0.045776 -0.249326 3.265757 214 210 193
0.045776 -0.249326 3.265757 214 210 193
0.167284 -0.374984 3.074984 128 125 96
0.185925 -0.387066 3.073039 235 230 223
0.184671 -0.367138 3.117408 144 140 129
0.211127 -0.379468 3.083553 102 98 84
0.263560 -0.486917 3.053392 146 138 46
0.229457 0.123686 3.817503 28 25 15
0.284784 0.126119 3.717131 188 184 172
0.282398 0.232940 3.867063 173 170 158
0.303475 0.114390 3.758986 181 179 167
0.564524 0.199198 4.153574 23 20 9
0.782673 -0.426528 3.234976 130 126 113
0.788462 -0.398649 3.268031 233 227 220
0.806898 -0.371697 3.369506 128 125 115
0.805300 -0.345807 3.382416 230 226 217
0.825775 -0.390701 3.355163 150 145 139
0.862207 -0.373674 3.339951 230 226 216
0.904348 -0.394594 3.325865 75 74 71
1.292739 0.157229 3.706381 82 82 61
1.343850 -0.070691 3.577323 233 228 216
0.412724 0.116377 2.401369 77 74 62
0.274054 0.198519 2.253980 165 163 151
0.379943 0.229143 3.688424 181 180 169
0.327959 0.187849 3.064658 182 181 170
0.447573 0.232944 3.087110 197 195 183
0.269250 0.299171 4.148234 154 151 141
0.431641 0.151533 2.893110 176 174 162
0.203695 0.100225 1.844898 191 188 178
0.310213 0.182137 3.036586 181 179 167
0.286193 0.222263 2.497558 194 190 176
0.286193 0.222263 2.497558 194 190 176
0.419505 0.420161 3.959990 50 47 36
0.103063 0.959012 5.112520 153 151 140
0.103063 0.959012 5.112520 154 152 141
0.318553 0.277107 2.561037 30 28 16
0.329830 0.235871 3.102347 192 190 178
0.312493 0.104070 3.726914 194 192 180
0.448741 0.270274 3.449584 176 174 162
0.389138 0.189082 3.449824 183 181 169
0.465330 0.129885 2.886782 179 177 164
0.529623 0.528315 5.609854 203 198 187
0.262092 0.071027 4.175778 174 170 158
0.364387 0.431640 3.987014 110 107 96
0.239786 0.071348 4.698013 174 170 161
0.329989 0.308902 3.885003 76 75 66
0.359947 0.390634 3.743621 84 82 75
0.472504 0.236191 3.163541 183 181 169
1.072308 0.143077 3.191827 125 121 91
1.151962 0.109682 3.553206 44 46 22
1.216281 0.404267 3.335725 93 89 79
1.316624 0.717698 3.342722 226 222 213
1.088107 0.417286 3.290808 97 93 84
1.299810 0.995391 3.453268 136 129 42
1.027667 0.969708 3.349471 225 221 216
0.898851 0.818048 3.138546 245 241 235
1.028995 1.020010 3.334575 226 222 211
0.922185 0.980863 3.220125 51 52 42
0.931471 1.111918 3.264302 56 53 50
0.880460 1.076882 3.256936 77 77 74
0.801380 0.973073 3.229273 226 222 215
0.792993 0.966570 3.195890 228 225 217
0.814800 1.000980 3.269462 172 168 160
0.746993 0.921980 3.133585 134 130 122
0.826581 1.093256 3.269125 50 52 44
0.854594 1.176327 3.316413 213 213 193
0.746655 1.064776 3.200498 78 78 60
0.752460 1.159221 3.300389 231 227 219
0.776585 1.197522 3.418634 230 227 217
0.675251 1.105096 3.235767 228 224 218
0.305924 0.211409 3.758296 196 195 183
0.579990 1.296122 3.322736 134 128 39
0.148077 0.875655 3.130997 64 62 48
0.078164 0.959192 3.207046 205 201 174
-0.063858 1.067884 3.539953 139 131 38
0.495578 0.235918 3.493285 196 194 182
0.398077 -1.055469 0.087692 128 120 38
0.351420 -1.040130 0.044451 219 218 205
0.311046 -0.752777 -0.172256 152 148 137
0.354762 -0.794854 -0.013123 137 135 126
0.257585 -0.788358 -0.087695 17 19 17
0.325974 -0.689549 -0.077160 163 159 147
0.264339 -0.707676 -0.124547 28 29 23
0.219668 -0.673891 -0.199655 28 27 25
0.188333 -0.617749 -0.247071 31 31 30
0.200047 0.137222 3.581266 70 69 58
0.144245 0.189404 2.863030 146 140 129
0.061593 -0.878917 2.019571 81 75 65
0.059392 -0.935733 2.208236 230 223 215
0.065411 -0.890075 2.187674 45 40 28
0.027781 -0.935124 2.449406 97 93 77
-0.039091 -0.759312 3.585478 198 193 179
-0.022443 -0.730014 3.719255 44 41 28
-0.074115 -0.763821 3.647930 70 66 46
0.520598 0.170460 3.405214 87 83 71
0.520598 0.170460 3.405214 87 83 71
0.467582 0.196230 3.549571 175 171 159
0.460049 0.222963 3.559694 89 84 72
