ply
format ascii 1.0
element vertex 1229
property float x
property float y
property float z
property uchar red
property uchar green
property uchar blue
end_header
0.950339 0.349971 5.344022 225 221 209
0.848931 0.324616 4.846101 223 219 207
0.749121 0.298746 4.348060 228 224 212
2.097160 0.763864 12.082597 237 233 221
1.273807 0.506886 7.594617 234 230 218
0.657576 0.299231 4.102157 224 220 208
0.341448 0.197985 2.356527 236 232 223
0.336564 0.199559 2.356893 205 201 192
1.522732 0.658807 9.598037 171 166 160
0.396776 0.238190 2.857899 236 231 225
0.391094 0.240021 2.858325 239 234 228
0.986430 0.512446 6.857864 236 231 225
0.550057 0.333880 4.110209 228 223 217
0.579452 0.353425 4.360765 214 209 203
0.571373 0.356029 4.361370 137 132 126
0.563293 0.358632 4.361975 158 153 147
0.626967 0.396148 4.862722 220 216 205
0.618089 0.399009 4.863387 230 226 214
0.468900 0.331017 3.863528 225 221 209
0.322907 0.261995 2.863431 222 218 206
0.214390 0.209914 2.113284 220 216 204
0.169554 0.224363 2.116642 203 199 188
0.185187 0.248342 2.368229 204 200 189
0.208989 0.269690 2.619204 208 204 193
0.882556 0.749044 8.634945 214 210 199
0.170538 0.253063 2.369326 202 198 187
0.577949 0.557033 6.130180 194 190 179
0.377466 0.418518 4.375890 201 197 186
0.502822 0.523208 5.630291 210 206 195
0.387595 0.444272 4.627889 211 207 195
0.111267 0.243147 2.121007 208 204 192
0.304299 0.413080 4.128612 213 209 197
0.288940 0.418030 4.129762 210 208 195
0.379359 0.533979 5.386779 209 207 194
0.455135 0.683664 6.897649 204 202 189
2.479464 0.618037 12.054489 220 213 203
1.463311 0.459718 7.833531 225 221 209
0.684986 0.253332 3.847532 224 220 208
0.491559 0.201363 2.850946 225 221 209
0.501605 0.226701 3.102961 220 216 204
0.302629 0.176521 2.106791 228 224 215
0.465115 0.238461 3.105694 227 223 214
0.365782 0.213321 2.607597 226 221 215
0.360499 0.215023 2.607993 235 230 224
0.355217 0.216726 2.608388 244 239 233
1.058143 0.504563 7.105569 219 214 208
1.006723 0.492558 6.856651 212 207 201
1.110286 0.544911 7.607199 206 201 195
1.135158 0.565471 7.858104 203 198 192
1.347966 0.668346 9.358775 221 216 210
1.369243 0.690065 9.609949 231 226 222
0.532244 0.331131 4.111738 239 234 228
0.560713 0.350533 4.362373 163 158 152
0.624132 0.387247 4.863160 115 111 100
0.685952 0.424476 5.364066 200 196 185
0.571425 0.375657 4.614339 210 206 195
0.537509 0.386587 4.616879 222 218 206
0.759695 0.515015 6.369614 220 216 204
0.344824 0.305803 3.367469 228 224 212
0.672362 0.514583 6.123386 96 92 80
0.722596 0.555547 6.625160 207 203 191
0.650609 0.521594 6.125015 230 226 214
0.699245 0.563072 6.626909 213 209 198
0.178745 0.245021 2.368835 200 196 185
0.957497 0.822757 9.640782 210 206 195
0.038236 0.175998 1.368286 208 204 192
0.031666 0.178116 1.368778 210 206 194
0.680765 0.740483 8.144898 208 206 193
0.737980 0.807772 8.898917 207 205 192
0.091901 0.244432 2.122571 201 202 188
0.388755 0.548829 5.639088 205 203 190
0.618094 0.789256 8.402359 206 204 191
0.624988 0.815610 8.654610 205 203 190
0.484062 0.197498 2.851652 227 223 211
2.009852 0.662351 11.331841 226 222 210
0.920932 0.394320 5.852271 185 181 172
0.333445 0.189768 2.357375 158 153 147
0.328562 0.191342 2.357741 215 210 206
0.485343 0.253353 3.357112 228 223 219
1.159140 0.514494 7.603878 230 225 221
1.145867 0.518771 7.604872 212 207 201
1.171811 0.538545 7.855707 162 157 151
0.381782 0.230459 2.859311 157 152 146
1.475642 0.721973 10.360733 143 138 132
1.678894 0.825277 11.862180 216 211 205
0.558132 0.342433 4.362772 232 227 221
0.621296 0.378346 4.863598 162 157 151
0.682861 0.414774 5.364543 104 100 91
0.777651 0.468629 6.115778 213 209 198
0.904466 0.540298 7.117393 228 224 212
0.093031 0.154708 1.364267 220 216 204
0.710991 0.518246 6.373548 221 217 205
0.607234 0.467280 5.622984 135 131 119
0.428861 0.384093 4.372452 216 212 200
1.034586 0.779707 9.635428 215 211 200
0.787482 0.634267 7.631709 157 153 144
0.489309 0.477150 5.379037 214 210 199
0.591835 0.753586 8.151915 204 202 189
0.280430 0.460061 4.636345 204 202 189
0.849895 0.211783 4.088341 210 206 195
1.043634 0.260118 5.084985 211 207 196
1.760606 0.416758 8.570328 213 209 198
0.561798 0.166164 2.845975 221 217 206
0.323224 0.132279 1.852688 225 221 209
1.216358 0.398303 6.841567 222 218 206
2.204895 0.688968 12.328877 221 217 205
0.949016 0.373688 5.850434 232 228 217
0.425425 0.210113 2.856187 211 207 196
0.327003 0.186446 2.357981 235 230 226
1.369616 0.570454 8.852394 226 221 217
1.434123 0.605051 9.353140 210 205 201
1.299585 0.565330 8.604850 146 141 135
0.382167 0.251746 3.112214 199 194 188
0.618460 0.369445 4.864036 220 215 209
0.679770 0.405072 5.365021 123 119 110
0.774177 0.457726 6.116315 156 152 141
0.454644 0.311467 3.865151 212 208 196
0.921903 0.548582 7.369193 222 218 206
0.507075 0.349956 4.366801 219 215 203
0.707390 0.506942 6.374104 220 217 202
0.481218 0.385981 4.621525 224 220 208
0.624238 0.478353 5.874755 152 148 136
0.534606 0.451854 5.375891 207 203 192
0.476540 0.470566 5.380239 207 203 192
0.493167 0.492901 5.631782 207 203 192
0.379470 0.418771 4.629144 207 203 192
0.305089 0.415049 4.381926 206 204 191
0.152679 0.298010 2.876611 206 204 191
0.529766 0.142955 2.595720 214 210 199
0.273768 0.116451 1.603698 218 214 202
0.501860 0.206450 3.103406 229 225 214
0.302817 0.161591 2.107118 223 219 210
0.298333 0.163036 2.107454 192 188 179
0.240238 0.154507 1.859006 228 223 219
0.355438 0.199135 2.608774 171 166 162
0.851380 0.393572 5.858012 218 213 207
0.840903 0.396948 5.858797 234 229 223
0.830427 0.400325 5.859581 200 195 189
0.819950 0.403701 5.860366 124 119 113
0.380224 0.245649 3.112514 208 203 197
0.552972 0.326233 4.363569 222 217 211
0.615625 0.360544 4.864474 232 227 221
0.676679 0.395370 5.365498 230 225 219
0.445038 0.306515 3.866055 124 120 108
1.005023 0.589316 8.121690 198 194 182
0.826105 0.510721 6.871097 213 209 197
0.292919 0.246534 2.866254 220 216 205
0.500204 0.397741 4.873117 219 215 203
0.521098 0.418258 5.124350 191 187 175
0.482446 0.403463 4.874446 91 87 76
0.183832 0.227187 2.368827 100 96 85
0.436115 0.391143 4.625118 184 180 169
0.455811 0.412047 4.876441 228 224 213
0.669132 0.561308 6.882852 224 220 209
0.574931 0.509913 6.131511 172 168 157
0.618006 0.550533 6.633882 83 79 68
0.526602 0.498237 5.882332 161 157 146
0.568479 0.539243 6.384793 197 193 182
0.608758 0.580765 6.887373 203 199 188
0.342906 0.393931 4.379299 207 203 192
0.234913 0.319729 3.376194 208 204 192
2.248438 0.494760 11.062636 217 213 202
2.269132 0.595328 12.072319 219 215 203
0.443556 0.164898 2.602310 219 215 203
1.588930 0.466014 8.836747 221 217 205
0.301385 0.157097 2.107340 220 216 207
0.421795 0.198720 2.856748 168 164 155
0.247102 0.147781 1.858596 218 213 207
0.238934 0.150413 1.859208 209 204 200
1.503125 0.600903 9.854406 116 111 105
1.042206 0.454540 7.108030 235 230 224
0.837557 0.386445 5.859313 191 186 180
0.865116 0.404373 6.110058 138 133 127
0.666584 0.361116 5.113692 109 104 98
0.692944 0.379431 5.364526 186 181 175
0.612789 0.351643 4.864912 216 211 205
0.429715 0.276596 3.614579 218 213 207
0.449993 0.296870 3.865869 215 211 200
0.103023 0.140594 1.363769 107 103 92
0.428152 0.303909 3.867505 140 136 125
0.453314 0.322609 4.118429 213 209 198
0.349507 0.275635 3.367777 225 221 209
0.469597 0.344171 4.370018 217 214 199
0.707680 0.508728 6.627464 213 209 197
0.488489 0.391701 4.874220 219 215 203
0.508856 0.411947 5.125503 205 201 190
0.470732 0.397424 4.875549 152 148 136
0.461854 0.400285 4.876214 71 67 55
0.452975 0.403146 4.876879 156 152 140
0.444097 0.406007 4.877544 214 210 198
0.544209 0.480982 5.881280 224 220 209
0.587429 0.520672 6.383660 201 197 186
0.549705 0.506020 6.133677 102 98 87
0.630551 0.587203 7.138856 194 190 179
0.567576 0.553879 6.637955 199 195 184
0.531050 0.538841 6.387882 209 205 193
2.072579 0.425107 10.065010 212 208 197
0.738883 0.195722 3.844421 211 207 196
0.731603 0.198069 3.844966 219 215 203
1.117082 0.284782 5.838648 213 209 197
1.106606 0.288158 5.839432 218 214 202
1.047833 0.280731 5.591015 221 217 205
0.210378 0.102366 1.355813 210 206 194
0.578896 0.220913 3.603583 220 216 204
0.313404 0.148267 2.106554 224 221 206
0.299953 0.152602 2.107561 228 224 215
0.419981 0.193024 2.857028 165 160 154
0.408616 0.196686 2.857879 218 213 207
1.571781 0.586497 10.102512 224 219 213
0.237630 0.146319 1.859409 192 187 181
0.229462 0.148951 1.860021 191 186 180
0.844688 0.372566 5.859046 229 224 218
0.987441 0.432032 6.859629 129 124 118
0.663225 0.325575 4.861360 184 179 173
0.963376 0.466155 7.114250 172 167 161
0.228216 0.175720 2.112933 170 165 159
0.399287 0.252428 3.364214 223 218 212
0.427517 0.269698 3.614919 211 206 200
0.180453 0.164745 1.863691 124 120 111
1.397215 0.721857 10.874039 185 181 172
1.646851 0.852349 12.877893 215 211 202
0.433107 0.294264 3.867319 219 215 206
0.458541 0.312435 4.118233 141 137 128
0.418547 0.298956 3.868409 87 83 74
0.411266 0.301302 3.868954 191 187 175
0.561562 0.384705 5.121792 222 219 204
0.685310 0.476663 6.376617 220 216 204
0.574206 0.433366 5.626482 218 214 202
0.593247 0.453597 5.877874 215 211 200
0.467897 0.388523 4.875987 217 213 201
0.487337 0.408625 5.127350 207 203 191
0.450140 0.394245 4.877317 124 120 108
0.496301 0.432104 5.379497 79 75 63
0.513743 0.452851 5.631009 175 171 159
0.476945 0.438342 5.380946 207 203 192
0.598873 0.530887 6.635908 212 208 197
0.561276 0.516635 6.385905 170 166 155
0.498956 0.483984 5.884935 72 68 57
0.538725 0.523903 6.387594 150 146 135
0.576895 0.564337 6.890372 206 202 190
0.443203 0.475584 5.636292 204 200 188
1.712453 0.547999 10.345245 223 219 207
0.298521 0.148107 2.107782 219 215 206
0.418166 0.187327 2.857308 129 124 118
1.559827 0.545334 9.851017 163 158 152
0.285070 0.152442 2.108789 225 220 214
0.236325 0.142225 1.859611 164 159 153
0.228157 0.144857 1.860222 209 204 198
0.879921 0.375556 6.109502 205 200 194
0.392643 0.221478 3.112048 151 146 140
0.240234 0.166891 2.112147 214 209 203
0.235751 0.168336 2.112482 213 208 202
0.410180 0.241753 3.363563 108 103 97
0.262167 0.185749 2.363333 166 161 155
0.397217 0.245930 3.364534 222 217 211
0.425320 0.262800 3.615258 205 200 194
1.661596 0.823649 12.877339 73 68 62
1.573161 0.800296 12.378304 147 142 136
0.364811 0.256374 3.366961 216 211 205
0.423502 0.289311 3.868223 225 220 214
0.351848 0.260551 3.367931 178 173 167
0.313580 0.246958 3.117969 96 92 81
0.527211 0.359593 4.871771 195 191 179
0.332404 0.266817 3.369387 216 212 200
0.365259 0.308081 3.872584 201 197 185
0.386969 0.327011 4.123787 191 187 175
0.379289 0.329486 4.124362 195 191 179
0.483532 0.425521 5.380699 82 78 67
0.447261 0.411284 5.130587 127 123 112
0.490370 0.449243 5.633016 197 193 182
0.609263 0.540558 6.888255 213 209 198
0.724160 0.633160 8.143794 205 201 190
0.585113 0.548341 6.890064 107 103 92
0.646824 0.606231 7.643928 102 98 86
0.706138 0.664894 8.397972 192 188 176
0.644074 0.633043 7.896963 206 203 188
0.443227 0.490362 5.889374 210 207 192
0.349374 0.101278 1.851249 207 203 192
1.011164 0.270269 5.594273 213 209 197
1.837052 0.462830 10.083525 211 207 195
0.806838 0.234179 4.598219 215 211 199
0.844003 0.247687 4.848274 216 212 200
0.427929 0.152415 2.603883 221 217 205
1.061484 0.330505 6.349021 223 219 207
1.621916 0.506677 9.846796 220 216 204
0.404987 0.185293 2.858440 218 213 207
0.472923 0.214368 3.359030 146 141 135
0.230937 0.139446 1.860118 112 107 101
0.304555 0.166690 2.360283 208 203 197
0.376575 0.194449 2.860567 195 190 184
0.390700 0.215381 3.112348 173 168 162
0.421072 0.231078 3.362912 223 218 212
0.378537 0.219301 3.113259 215 210 204
0.408110 0.235255 3.363883 112 107 101
0.366373 0.223221 3.114170 174 169 163
0.395147 0.239433 3.364854 225 220 214
0.423122 0.255901 3.615598 212 207 201
0.382185 0.243610 3.365824 101 96 90
0.461315 0.294562 4.118415 146 141 135
0.388718 0.266989 3.618174 209 204 198
0.349778 0.254053 3.368251 223 218 212
0.374956 0.271424 3.619204 166 162 151
0.399335 0.289051 3.870218 90 86 75
0.330334 0.260320 3.369707 190 186 175
0.354314 0.278076 3.620750 212 208 196
0.370214 0.298436 3.872398 197 193 181
0.392196 0.316837 4.123591 122 118 106
0.384516 0.319312 4.124166 89 85 73
0.376836 0.321787 4.124741 96 92 80
0.397220 0.340702 4.376053 84 80 68
0.416804 0.359875 4.627426 133 129 117
0.381061 0.345909 4.377263 178 174 162
0.372981 0.348513 4.377868 207 203 192
0.417833 0.385027 4.880187 139 135 124
0.513218 0.456225 5.884399 83 79 68
0.502741 0.459601 5.885184 184 180 169
0.441731 0.428294 5.384075 216 212 201
0.655859 0.588647 7.643589 212 208 197
0.618117 0.575325 7.393577 131 127 115
0.677448 0.632658 8.147650 70 66 54
0.592369 0.583623 7.395505 188 185 170
0.695841 0.677699 8.651950 199 196 181
0.406534 0.465121 5.639550 204 202 187
0.613783 0.136766 3.095798 202 198 187
2.188091 0.480868 11.574770 212 208 196
0.790533 0.205019 4.346806 220 216 204
0.850046 0.235925 4.848048 213 209 197
0.886683 0.249160 5.098153 211 207 195
0.912843 0.265772 5.349043 212 208 196
1.797691 0.506510 10.592609 215 211 199
0.522703 0.191161 3.355467 223 220 205
0.403172 0.179597 2.858720 217 212 206
0.419167 0.199485 3.110371 207 202 196
0.374761 0.188753 2.860847 213 208 202
0.388758 0.209284 3.112648 155 150 144
0.376594 0.213204 3.113559 210 205 199
0.406040 0.228758 3.364203 110 105 99
0.364431 0.217124 3.114470 171 166 160
0.462534 0.260637 3.865670 217 212 206
0.420925 0.249003 3.615937 220 215 209
0.447973 0.265329 3.866760 126 121 115
0.306574 0.210727 2.865953 153 148 144
1.261663 0.629169 10.127051 189 184 180
0.393401 0.257873 3.617998 72 67 63
0.354189 0.245467 3.368086 190 185 179
0.283845 0.218052 2.867655 213 208 202
0.404291 0.279407 3.870032 208 204 195
0.365878 0.266743 3.620059 118 114 105
0.543394 0.359791 5.123859 132 128 117
0.352116 0.271178 3.621090 200 196 185
0.345235 0.273395 3.621605 215 211 199
0.367889 0.291138 3.872757 205 201 189
0.324593 0.280048 3.623151 88 84 72
0.346048 0.298176 3.874393 101 97 85
0.405617 0.354107 4.628479 75 71 60
0.432057 0.395671 5.132197 187 183 172
0.397240 0.381849 4.881955 68 64 55
0.514057 0.469416 6.137452 160 156 145
0.552661 0.507061 6.640259 211 207 196
0.687026 0.614015 8.147290 207 203 191
0.768716 0.687859 9.152568 164 160 148
0.729504 0.675453 8.902656 57 54 39
0.667950 0.645205 8.401568 188 185 170
0.744446 0.720723 9.407235 198 196 181
2.711220 0.438146 13.053250 205 201 190
2.280141 0.429463 11.568377 201 197 186
0.976500 0.209959 5.091663 175 171 160
0.379413 0.107169 2.102066 187 183 172
1.895097 0.405944 10.080056 212 208 197
0.598409 0.159599 3.349962 212 208 197
0.826859 0.208981 4.597150 217 213 202
0.864967 0.221301 4.847156 212 208 197
0.566002 0.170042 3.352389 206 202 190
0.559521 0.172131 3.352874 185 181 169
0.597629 0.184451 3.602880 162 158 146
0.233547 0.104975 1.607271 139 135 123
1.531577 0.424691 9.095841 181 177 165
0.335618 0.145884 2.358205 194 190 181
0.325852 0.149031 2.358936 181 176 170
0.236496 0.128625 1.859909 206 201 195
0.455820 0.205550 3.360640 215 210 204
0.367264 0.184887 2.861553 203 198 192
0.453131 0.231018 3.613700 196 191 185
0.374652 0.207107 3.113859 212 207 201
0.403970 0.222260 3.364523 105 100 94
0.432489 0.237670 3.615246 176 171 165
0.460208 0.253338 3.866029 226 221 215
0.418727 0.242105 3.616276 225 220 214
0.445648 0.258031 3.867120 159 154 148
0.404965 0.246540 3.617307 106 101 95
0.398084 0.248758 3.617822 213 208 202
0.423806 0.265069 3.868755 129 124 118
0.352119 0.238970 3.368405 139 134 128
0.377442 0.255410 3.619368 215 210 204
0.401965 0.272108 3.870391 216 211 205
0.425690 0.289063 4.121473 171 166 160
0.356799 0.262062 3.620914 88 83 77
0.581487 0.386461 5.626961 128 124 113
0.336157 0.268715 3.622460 177 173 161
0.379610 0.303913 4.124924 195 192 177
1.331000 0.833744 12.650887 188 184 172
1.003844 0.668565 9.893937 138 134 123
0.329162 0.295570 3.875842 81 77 66
0.333531 0.318763 4.128374 109 104 98
0.403283 0.370087 4.881728 200 195 189
0.445227 0.405772 5.384305 184 179 173
0.485572 0.441972 5.887002 64 60 49
0.548932 0.495356 6.640835 159 155 144
0.270918 0.314340 3.880204 202 198 187
0.739898 0.655222 8.902266 204 200 189
0.818281 0.728366 9.907832 153 151 139
0.778397 0.716618 9.657960 75 73 61
0.716699 0.687300 9.156862 188 186 174
0.767672 0.744675 9.911622 203 201 189
1.505918 0.270682 7.580946 204 200 189
0.373498 0.104119 2.102623 127 123 112
1.185990 0.252987 6.340557 175 171 160
1.270030 0.274223 6.840002 186 182 171
2.439413 0.501351 13.074165 189 185 174
0.871010 0.209539 4.846929 179 175 164
0.908591 0.221588 5.096984 185 181 170
0.853253 0.215262 4.848259 210 206 195
0.433433 0.133122 2.603873 210 206 194
1.061799 0.268851 6.096988 165 161 149
0.462047 0.148061 2.854600 152 148 136
0.391172 0.146742 2.607038 216 212 200
0.622915 0.217014 4.106899 184 180 171
0.405224 0.166372 2.858855 195 190 184
0.453750 0.199053 3.360959 216 211 205
0.440788 0.203230 3.361930 219 214 208
0.471576 0.217467 3.612494 197 192 186
0.390955 0.195130 3.112793 150 145 139
0.311932 0.172278 2.612972 149 144 138
0.414862 0.211585 3.363872 177 172 166
0.372709 0.201010 3.114159 216 211 205
0.401900 0.215762 3.364842 149 144 138
0.360546 0.204930 3.115070 122 117 111
0.388937 0.219940 3.365813 216 211 205
0.416529 0.235207 3.616616 219 214 208
0.375975 0.224117 3.366784 204 199 193
0.402768 0.239642 3.617646 90 85 79
0.096728 0.120835 1.364741 133 128 122
0.093443 0.121893 1.364987 144 139 133
0.406920 0.262463 3.870205 213 208 202
0.681130 0.391528 6.125493 216 211 205
0.423237 0.281364 4.121852 210 205 199
0.340840 0.259599 3.622284 162 158 147
0.363238 0.276540 3.873476 116 112 101
0.320198 0.266252 3.623829 162 158 146
0.313317 0.268469 3.624345 199 195 183
1.330625 0.834518 12.904325 212 208 197
0.354118 0.303639 4.127028 173 169 160
0.373319 0.321610 4.378459 72 67 63
0.409326 0.358325 4.881501 81 76 72
0.323398 0.313539 4.129328 129 124 118
0.290434 0.300003 3.878927 205 200 194
0.482226 0.431469 5.887519 170 166 157
0.520718 0.467383 6.390375 63 59 48
0.822547 0.684184 9.655072 195 191 180
0.900818 0.755597 10.660688 211 207 196
1.092323 0.911315 12.922170 199 197 185
0.864682 0.767242 10.663394 119 117 105
1.004022 0.891453 12.423044 104 102 89
0.276366 0.352855 4.385719 198 196 183
0.289974 0.372629 4.637569 195 193 180
0.473088 0.531051 6.899680 197 195 182
0.887071 0.218266 5.098831 143 139 127
0.897519 0.262335 5.603807 203 199 187
0.971315 0.285988 6.104040 220 216 204
0.337382 0.134519 2.358321 207 203 192
0.455912 0.167474 3.108083 159 155 146
0.392045 0.164338 2.859986 204 199 193
0.451680 0.192555 3.361279 217 212 206
0.701510 0.278067 5.112726 219 214 208
0.469378 0.210569 3.612833 218 213 207
0.499240 0.224663 3.863476 219 214 208
0.491960 0.227010 3.864022 218 213 207
0.412792 0.205087 3.364191 222 217 211
0.370767 0.194913 3.114459 227 222 216
0.434974 0.221657 3.615409 191 186 180
0.914522 0.399161 7.119810 84 79 73
0.386867 0.213442 3.366133 176 171 165
0.448278 0.241087 3.867293 218 213 207
0.440997 0.243433 3.867838 218 213 207
0.433717 0.245779 3.868383 200 195 189
0.360942 0.221797 3.368074 141 136 130
0.411876 0.252818 3.870019 186 181 175
0.366166 0.243831 3.620562 217 212 206
0.359285 0.246049 3.621077 218 213 207
0.322054 0.234329 3.370986 212 207 201
1.244036 0.672451 11.141204 212 208 199
0.324881 0.257136 3.623654 181 177 168
0.346352 0.273934 3.874925 94 90 81
0.981985 0.614596 9.643551 94 90 79
1.130834 0.708932 11.149681 180 176 165
0.297357 0.266006 3.625715 211 207 198
0.317231 0.283319 3.877106 133 128 122
0.489357 0.417589 5.887251 196 192 183
0.602662 0.499663 7.143163 195 191 180
0.638901 0.535419 7.646208 117 113 102
0.306103 0.334340 4.383698 205 201 190
1.039087 0.857087 12.420948 208 206 194
0.244427 0.306781 3.882558 185 183 171
0.259506 0.325640 4.134308 63 61 48
0.229866 0.311474 3.883648 168 166 153
0.287266 0.364129 4.637988 195 193 180
0.939191 0.214490 5.348053 193 189 178
0.430059 0.122531 2.604395 95 91 80
0.424776 0.124233 2.604790 125 121 109
1.879491 0.446809 11.094099 224 220 208
0.441806 0.165297 3.109294 215 211 202
0.378866 0.162304 2.861117 188 183 177
0.449610 0.186058 3.361599 211 206 200
0.208079 0.124240 1.862349 216 211 205
0.303274 0.163389 2.613889 214 209 203
0.333408 0.176954 2.864521 204 199 193
0.432777 0.214758 3.615749 184 179 173
0.419015 0.219193 3.616779 130 125 119
0.784135 0.357563 6.371222 208 203 197
0.431392 0.238481 3.868742 212 207 201
0.363968 0.236933 3.620901 213 208 202
0.387709 0.252558 3.872013 175 170 164
0.343326 0.243586 3.622447 156 151 145
0.336445 0.245803 3.622963 190 185 179
0.329564 0.248020 3.623478 202 197 191
0.952416 0.559367 9.140405 216 211 205
0.315802 0.252455 3.624508 214 209 203
0.336747 0.268982 3.875829 161 157 146
0.329466 0.271328 3.876375 78 74 65
0.322186 0.273674 3.876920 118 114 105
0.155360 0.211057 2.624965 202 198 187
0.303523 0.326241 4.384096 197 193 182
0.227541 0.304175 3.884007 129 127 114
0.284558 0.355628 4.638406 195 193 180
0.276079 0.358361 4.639041 197 195 182
0.719574 0.114727 3.594447 201 197 186
1.481750 0.211617 7.330868 203 199 188
1.127511 0.211605 6.092896 141 137 126
1.187835 0.237833 6.594178 198 194 183
2.005535 0.385333 11.085140 214 210 199
2.215052 0.431983 12.333949 221 217 206
1.602648 0.355330 9.345012 164 160 149
0.228840 0.090200 1.607998 219 215 203
0.427700 0.163120 3.110505 165 161 152
0.421618 0.165080 3.110960 110 105 99
0.377051 0.156608 2.861398 199 194 188
0.447540 0.179560 3.361919 214 209 203
1.297313 0.453729 9.367876 217 212 206
0.408652 0.192092 3.364831 210 205 199
0.416817 0.212295 3.617119 202 197 191
0.236600 0.156202 2.366116 209 204 198
0.363283 0.206713 3.368228 205 200 194
0.356802 0.208802 3.368713 200 195 189
0.350321 0.210891 3.369199 208 203 197
0.368651 0.227818 3.620726 211 206 200
0.392664 0.242913 3.871827 186 182 173
0.320486 0.243340 3.624332 148 143 137
0.903643 0.534927 8.891556 193 188 182
0.306724 0.247775 3.625363 211 207 198
0.299843 0.249992 3.625878 202 198 189
1.019220 0.634686 10.400299 124 119 113
1.213543 0.754737 12.408945 79 74 68
0.514095 0.386455 5.885931 135 130 124
0.323719 0.287966 4.129890 188 184 175
0.607168 0.470631 7.143460 123 119 108
0.692699 0.534405 8.148653 141 137 128
0.427532 0.391516 5.639513 151 147 136
0.137824 0.210868 2.626412 194 190 179
0.463964 0.471113 6.648384 123 119 107
0.494899 0.506812 7.151867 199 197 184
0.305038 0.061571 1.602386 200 196 185
1.682210 0.222354 8.327823 201 197 186
1.426142 0.215306 7.335359 204 200 189
0.823527 0.140798 4.345567 202 198 187
0.279246 0.069883 1.604317 202 198 187
2.229253 0.404342 12.333415 131 127 116
0.978558 0.202799 5.598507 132 128 117
2.142374 0.409948 12.087011 178 174 163
2.166659 0.424514 12.338103 181 177 166
0.674543 0.166418 4.103814 105 101 90
0.352236 0.113538 2.357581 165 161 149
0.212925 0.091256 1.609284 195 191 179
0.450084 0.149183 3.108983 122 118 107
0.444003 0.151143 3.109438 195 191 180
0.431839 0.155063 3.110349 197 193 182
0.451951 0.170974 3.361753 206 201 195
0.711176 0.244183 5.112710 215 210 204
0.269222 0.140291 2.363797 219 214 208
0.442143 0.196527 3.615397 186 181 175
0.421501 0.203180 3.616943 201 196 190
0.380657 0.193950 3.367092 217 212 206
0.348251 0.204393 3.369518 152 147 141
1.385160 0.653973 12.143714 129 124 118
0.898766 0.519618 8.892309 84 79 75
0.966204 0.565062 9.645989 153 148 142
1.031245 0.611280 10.399848 194 189 183
0.906494 0.561913 9.397550 207 202 196
0.995909 0.622668 10.402494 183 178 172
0.321266 0.280267 4.130268 185 181 172
1.219803 0.796833 13.167735 115 111 100
0.132495 0.184354 2.374036 94 90 79
0.495037 0.425800 6.393444 190 186 175
0.530112 0.459282 6.896637 205 201 190
0.404160 0.387909 5.641520 199 195 184
0.505962 0.467065 6.898445 176 172 160
0.481812 0.474847 6.900254 147 143 131
0.279142 0.338628 4.639242 193 189 177
0.810329 0.114169 4.093841 198 194 183
2.321119 0.285819 11.568307 202 198 187
0.472541 0.091321 2.601616 200 196 185
1.499919 0.243152 8.088921 217 213 202
0.435978 0.147006 3.110194 212 208 197
0.429897 0.148966 3.110649 155 151 140
0.423815 0.150926 3.111105 99 95 86
0.449881 0.164476 3.362073 211 206 200
0.356375 0.150708 2.863235 215 210 204
0.200082 0.113273 1.863259 221 216 210
0.410994 0.177008 3.364985 212 207 201
1.343938 0.469027 10.123961 99 94 88
0.426184 0.194064 3.616767 189 184 178
0.385068 0.185363 3.366926 216 211 205
0.277082 0.154311 2.616253 202 197 191
1.554916 0.598594 12.384442 113 108 102
0.900687 0.392362 7.627954 150 145 139
0.402575 0.223624 3.871455 178 173 167
0.350495 0.218456 3.622435 192 187 181
0.343614 0.220674 3.622950 181 176 170
0.336733 0.222891 3.623465 128 123 117
0.322971 0.227326 3.624496 102 97 91
0.316090 0.229544 3.625011 99 94 88
0.337051 0.244740 3.876362 91 86 80
0.329771 0.247086 3.876907 91 86 80
0.322491 0.249432 3.877452 133 128 122
0.334173 0.267618 4.129497 202 198 189
0.300649 0.256471 3.879087 201 197 188
0.402036 0.333552 5.136095 197 193 182
0.417004 0.350679 5.387894 193 189 180
0.431173 0.368064 5.639753 199 195 186
0.374202 0.342522 5.138179 204 200 189
0.387971 0.360036 5.390068 204 200 189
0.400941 0.377807 5.642017 183 179 168
0.413112 0.395835 5.894025 133 129 117
0.402635 0.399212 5.894810 104 100 88
0.413608 0.417626 6.146908 186 182 170
0.613228 0.572805 8.661159 201 197 185
1.277140 0.148825 6.335451 198 194 183
2.232729 0.249546 11.069565 198 194 183
2.466302 0.281820 12.316725 201 197 186
2.595703 0.304646 13.065825 203 199 188
1.220761 0.166994 6.339673 202 198 187
0.651054 0.113990 3.600103 202 198 187
0.880632 0.147551 4.847562 202 198 187
0.721413 0.155843 4.353625 195 191 180
0.268206 0.086804 1.858261 198 194 183
0.386331 0.113264 2.608206 196 192 180
0.381048 0.114966 2.608601 182 178 166
0.375766 0.116669 2.608997 187 183 171
0.370483 0.118371 2.609393 204 200 188
0.440118 0.138949 3.110038 206 202 190
0.421873 0.144829 3.111405 139 135 124
0.377289 0.137687 2.861813 198 194 185
0.373219 0.160508 3.115048 200 195 189
1.373328 0.461975 10.375129 108 103 97
0.423986 0.187166 3.617107 199 194 188
1.440312 0.504916 11.128904 206 201 195
0.410224 0.191601 3.618137 155 150 144
0.396463 0.196036 3.619168 157 152 146
0.382701 0.200471 3.620198 134 129 123
0.375820 0.202688 3.620713 97 92 86
0.782332 0.372813 7.131294 207 202 196
0.348297 0.211558 3.622774 206 201 195
0.334535 0.215993 3.623805 203 198 192
0.327654 0.218211 3.624320 195 190 184
0.139142 0.171416 2.373786 184 180 169
0.031304 0.120131 1.370141 199 195 184
0.095890 0.163845 2.124095 196 192 183
0.091407 0.165290 2.124431 193 189 178
0.384880 0.350334 5.390546 167 163 152
0.268963 0.301653 4.387505 157 153 141
0.566634 0.528362 8.159166 202 196 184
1.872734 0.218299 9.579360 197 193 182
0.578056 0.087773 3.099864 200 196 185
0.425687 0.073673 2.352453 201 197 186
1.726599 0.223258 9.084423 202 198 187
0.703700 0.110485 3.849276 203 199 188
0.915682 0.147508 5.098103 203 199 188
0.249924 0.067113 1.606794 202 198 187
0.813623 0.180398 5.105746 188 184 172
0.300704 0.092884 2.108872 209 205 193
0.565373 0.155063 3.859634 188 184 173
0.426012 0.136772 3.111249 133 129 118
0.381156 0.130160 2.861668 191 187 176
0.483716 0.160311 3.612809 208 205 196
0.757282 0.240690 5.615845 211 206 200
0.783582 0.253283 5.866816 209 204 198
0.300121 0.135207 2.614796 204 199 195
0.428669 0.178050 3.616931 145 140 134
0.421788 0.180268 3.617446 214 209 203
1.400307 0.475884 10.879438 195 190 184
1.583318 0.543312 12.383375 98 93 87
1.396552 0.498162 11.132660 106 101 95
0.918756 0.357194 7.627275 144 139 135
0.380503 0.193573 3.620537 129 124 120
0.397924 0.209026 3.872173 212 207 203
0.359861 0.200225 3.622083 207 202 198
0.930265 0.416687 8.385234 186 181 175
0.339218 0.206878 3.623629 168 163 157
0.332338 0.209095 3.624144 183 178 174
0.325457 0.211312 3.624660 192 187 183
0.318576 0.213530 3.625175 195 190 186
1.235239 0.613351 11.903560 196 191 187
0.332401 0.230142 3.877080 195 190 186
0.398203 0.272139 4.630973 173 168 162
0.389724 0.274872 4.631608 141 136 130
0.407233 0.290297 4.883237 112 107 101
0.372112 0.343750 5.391748 133 129 118
0.384427 0.360849 5.643766 180 176 164
0.395943 0.378206 5.895843 199 196 181
0.406661 0.395819 6.147981 204 201 186
1.688630 0.197545 8.834714 198 194 183
0.853361 0.116084 4.597105 199 195 184
0.318690 0.061505 1.854688 202 198 187
0.959356 0.143803 5.348019 196 192 181
0.344108 0.073940 2.105735 191 187 176
0.743134 0.151606 4.605359 191 189 176
0.819938 0.168107 5.105508 124 122 109
1.644738 0.335446 10.355703 149 147 135
1.098699 0.243279 7.108237 131 129 117
0.436233 0.126755 3.110638 109 105 94
0.509042 0.144543 3.611087 146 142 131
0.345978 0.114589 2.611496 193 189 178
0.572572 0.165321 4.112230 205 203 191
0.603139 0.176096 4.362892 203 201 189
0.140895 0.077551 1.362101 207 204 195
0.393661 0.140474 3.113826 209 206 197
0.424227 0.151250 3.364488 209 204 198
0.816484 0.251724 6.117569 205 200 194
0.303717 0.128208 2.614661 204 199 193
0.369334 0.148314 3.115648 195 190 184
0.608604 0.215587 4.868383 97 92 86
0.149266 0.095479 1.614425 151 146 140
0.412710 0.175587 3.618301 170 166 157
1.409394 0.473167 11.132178 71 66 60
0.365896 0.170048 3.368856 90 85 79
0.385187 0.184457 3.620362 170 165 159
0.442014 0.207396 4.122007 201 196 190
0.381038 0.206420 3.873623 143 139 130
0.337021 0.199979 3.623968 110 106 97
0.330140 0.202197 3.624484 105 100 94
1.390187 0.644365 13.157219 110 105 99
0.370058 0.271837 4.633296 193 189 180
0.311455 0.249470 4.131784 201 198 189
0.829875 0.536172 9.657871 180 177 168
0.884994 0.580286 10.412595 181 177 166
0.937717 0.625173 11.167498 175 171 160
1.057234 0.710413 12.676251 177 173 162
0.378698 0.330930 5.391500 189 185 174
0.391286 0.347499 5.643508 191 187 175
0.381209 0.350747 5.644263 198 194 182
0.414063 0.381411 6.147703 200 197 182
0.045059 0.149688 1.875179 200 197 182
0.138227 0.222792 3.132954 199 196 181
1.164854 0.147617 6.344719 196 192 180
0.590671 0.090446 3.352189 201 197 185
1.366667 0.203685 7.847370 202 198 186
0.774461 0.152322 4.856189 201 199 187
0.849811 0.168408 5.356468 191 189 177
0.506414 0.117599 3.358498 161 159 147
1.013682 0.216519 6.608999 154 152 140
1.042123 0.227537 6.859830 167 165 153
0.428209 0.122618 3.111394 191 189 177
0.136560 0.075316 1.362509 205 203 191
0.579325 0.195024 4.617841 191 186 180
0.640691 0.215616 5.119167 93 88 82
0.424274 0.164254 3.617609 130 126 117
0.410512 0.168689 3.618640 172 168 159
1.496993 0.545186 12.643861 192 188 176
0.686773 0.321871 6.633479 200 196 187
0.732957 0.347356 7.135942 194 190 181
0.749012 0.362366 7.387700 180 176 167
0.792399 0.388752 7.890372 170 166 157
0.390493 0.235694 4.379021 178 174 165
0.382413 0.238297 4.379626 181 177 168
0.401266 0.252406 4.631175 186 182 171
0.392787 0.255139 4.631810 193 189 177
0.384308 0.257871 4.632444 196 192 180
0.401562 0.272495 4.884113 200 196 184
0.418017 0.287376 5.135841 200 196 184
0.438453 0.321159 5.640232 197 193 181
1.116707 0.687924 12.925298 199 195 184
0.418299 0.327654 5.641741 199 195 184
0.408222 0.330902 5.642496 196 192 181
0.420681 0.347071 5.894523 200 196 184
0.410205 0.350447 5.895308 204 200 188
0.357836 0.347139 5.646269 199 196 179
0.368298 0.363952 5.898446 198 195 180
0.116145 0.203001 2.881802 197 194 179
-0.007978 0.121896 1.373333 198 195 180
0.027418 0.150858 1.876603 199 196 181
0.686745 0.665013 10.933811 198 195 180
0.232870 0.326859 4.896745 196 193 178
0.416125 0.060561 2.353541 204 200 188
1.553172 0.167951 8.339692 203 199 187
1.290321 0.153946 7.094522 195 191 179
1.586218 0.216529 9.096130 193 189 177
0.497863 0.113190 3.359303 204 202 190
0.598386 0.140022 4.110688 207 205 193
0.590707 0.142497 4.111263 208 206 194
0.375712 0.113070 2.862509 204 202 190
1.061493 0.286918 7.870569 207 202 196
1.225791 0.332683 9.123120 208 203 197
0.611811 0.194924 4.868594 190 185 179
0.428957 0.155139 3.617434 96 92 83
0.422076 0.157356 3.617949 111 107 98
0.925136 0.291376 7.374839 191 187 176
0.408315 0.161791 3.618979 200 196 185
1.411272 0.450592 11.385966 200 196 185
0.711651 0.261462 6.125972 189 185 173
0.764771 0.283828 6.627935 170 166 154
0.816293 0.306710 7.130018 144 140 128
0.460876 0.243565 4.879897 201 197 188
0.816035 0.385763 8.141921 199 195 186
0.857169 0.411992 8.644782 202 198 187
0.434240 0.252149 4.881891 201 197 186
0.452166 0.266115 5.133520 198 194 182
0.678648 0.410296 7.899238 198 194 182
0.542940 0.355317 6.644547 201 197 185
0.579280 0.383091 7.147767 199 195 183
0.590413 0.399246 7.399904 197 193 181
0.385363 0.366614 6.150405 196 193 176
0.054294 0.157425 2.127665 196 193 176
0.422448 0.413890 6.906540 196 193 176
0.448800 0.444883 7.410508 196 193 176
0.022030 0.148080 1.877111 197 194 177
0.515121 0.522223 8.670395 198 195 178
0.590321 0.596702 9.929618 196 193 176
0.380164 0.047451 2.103377 193 189 177
1.143227 0.110356 6.093930 198 194 182
1.596003 0.157451 8.589834 195 191 179
1.505133 0.167434 8.343657 192 188 176
0.390150 0.063534 2.355610 196 192 180
0.885273 0.116283 5.101323 197 193 181
0.290273 0.057119 1.857128 195 191 179
1.388516 0.185715 8.099409 194 192 179
0.362533 0.111036 2.863640 202 200 188
0.717820 0.189548 5.366843 203 201 189
0.949528 0.249983 7.120358 202 197 191
1.043453 0.277617 7.872268 193 188 182
0.412998 0.152676 3.618804 200 196 185
0.774275 0.248558 6.374539 209 205 193
0.829138 0.269480 6.876393 185 181 169
0.411616 0.191723 4.124869 204 199 193
0.720464 0.304502 6.884531 137 132 126
0.965467 0.476457 10.154935 205 201 189
0.404769 0.251832 4.884324 197 193 181
0.192066 0.165972 2.876405 199 195 183
0.211463 0.179022 3.127933 203 199 187
0.381630 0.317192 5.644999 196 193 178
0.496532 0.453871 7.913223 195 192 175
0.170212 0.250218 3.889965 194 191 174
-0.001645 0.131894 1.626007 196 193 176
0.325725 0.041180 1.854577 192 188 176
1.462950 0.127312 7.841202 195 191 179
0.309388 0.046444 1.855800 197 193 181
0.705930 0.107245 4.356016 201 199 186
0.697850 0.109848 4.356621 196 194 181
0.349525 0.071228 2.358776 197 195 182
0.458966 0.130255 3.615536 198 196 184
0.488223 0.139686 3.866336 199 194 188
1.124236 0.274187 8.372548 194 189 183
1.215781 0.301263 9.124666 148 143 137
1.615882 0.455213 12.889570 184 180 168
1.496592 0.437078 12.139530 78 74 62
0.733963 0.267944 6.630836 196 192 183
0.722287 0.271707 6.631710 197 192 188
0.801047 0.302903 7.384785 177 172 169
0.125606 0.105671 1.869562 94 89 85
0.239929 0.163125 3.125956 201 197 188
0.233847 0.165085 3.126412 199 195 184
0.410812 0.240070 4.884097 196 192 181
0.114200 0.128206 2.123407 192 188 177
0.109717 0.129651 2.123743 199 195 184
0.203438 0.174885 3.128689 201 197 186
0.438875 0.287604 5.640969 201 197 186
0.476302 0.313261 6.144148 197 193 182
0.465426 0.316766 6.144962 195 191 179
0.453755 0.358246 6.651818 195 192 177
0.002014 0.107782 1.372835 194 191 174
-0.001271 0.108841 1.373081 195 192 175
-0.011126 0.112017 1.373819 194 191 174
0.650583 0.615423 10.937926 193 190 173
1.727911 0.118897 9.086714 191 187 175
1.856230 0.132797 9.836108 191 187 175
0.601835 0.058189 3.352011 192 188 176
0.406563 0.047448 2.354629 195 191 179
0.822863 0.079047 4.600466 194 190 178
1.278369 0.116429 7.096368 197 193 181
1.627065 0.188232 9.600268 195 191 179
1.740202 0.207024 10.350799 195 191 179
2.064954 0.249708 12.350490 198 194 182
0.475175 0.080590 3.108495 199 197 184
0.385086 0.072787 2.609239 198 196 183
0.374521 0.076192 2.610030 199 197 184
0.758731 0.136550 5.111271 201 199 186
0.265210 0.074584 2.112213 200 198 185
0.370268 0.095981 2.863350 199 197 185
0.289368 0.085217 2.363405 199 197 185
0.396112 0.106069 3.114415 199 195 184
0.500459 0.127695 3.865605 200 196 185
0.165489 0.069886 1.613678 201 197 186
0.377867 0.111949 3.115782 200 195 189
0.443007 0.127792 3.616906 181 176 170
0.506549 0.144150 4.118150 103 98 92
0.394433 0.125028 3.367542 105 100 94
0.509442 0.161635 4.370935 182 178 166
0.304886 0.135469 3.121247 139 135 124
0.144722 0.094996 1.868234 159 155 146
0.124302 0.101577 1.869764 87 82 78
0.120218 0.102893 1.870069 187 182 176
0.496119 0.258016 5.636938 196 192 181
0.486042 0.261264 5.637693 197 193 181
0.030530 0.094961 1.370783 198 192 180
0.507478 0.346444 6.901093 197 193 181
0.010820 0.101313 1.372259 198 194 182
0.191672 0.245624 4.141729 195 192 175
0.697579 0.635115 11.693880 196 193 176
0.828634 0.067815 4.600249 190 186 174
2.384886 0.177468 13.086097 192 188 176
0.344483 0.044081 2.106391 195 191 179
0.840189 0.082067 4.852395 194 190 178
0.241687 0.041257 1.608066 195 191 179
0.769281 0.086942 4.604694 198 194 182
1.887590 0.211898 11.352257 195 191 179
1.149641 0.144124 7.106324 196 193 178
0.425275 0.071972 2.859375 197 193 181
0.170734 0.046147 1.360368 199 195 183
0.875403 0.142622 5.861804 199 195 183
0.785969 0.135492 5.362478 202 198 186
0.405326 0.114353 3.366891 168 163 157
0.253627 0.091337 2.366206 141 136 130
0.514941 0.150931 4.370728 205 201 190
0.506862 0.153535 4.371333 147 143 131
1.184568 0.420483 11.151890 124 119 113
0.260371 0.143091 3.124735 198 193 187
0.193223 0.128779 2.623740 200 196 187
0.529671 0.254040 5.887693 196 192 181
0.361432 0.200403 4.382223 194 190 178
0.223881 0.154851 3.127467 192 188 176
0.549231 0.283689 6.392251 189 185 173
0.387384 0.227991 4.886303 188 184 172
0.353809 0.220835 4.635806 182 178 166
0.345330 0.223567 4.636440 190 184 172
0.312955 0.216025 4.385854 199 193 181
0.304875 0.218629 4.386459 202 196 184
0.175227 0.170531 3.131111 195 191 179
0.644839 0.414661 8.662193 196 192 180
0.657254 0.572443 10.938365 196 193 176
0.726306 0.640070 12.198251 194 191 174
0.864142 0.082067 5.103849 192 188 176
1.284035 0.174695 8.361685 199 195 183
0.474550 0.084880 3.361872 200 196 184
0.940282 0.145201 6.363254 200 196 184
0.338227 0.093744 2.866038 196 192 183
0.403256 0.107855 3.367211 159 155 146
0.396775 0.109944 3.367696 85 80 74
0.355737 0.105635 3.117748 163 158 152
0.512361 0.142832 4.371127 198 194 183
0.537639 0.152219 4.622255 133 129 117
0.227651 0.094310 2.368275 156 152 141
0.276674 0.131114 3.123668 106 101 95
0.473334 0.190477 4.880092 131 126 122
0.464455 0.193339 4.880757 183 178 174
0.246265 0.140914 3.125945 182 178 169
0.240184 0.142874 3.126401 171 167 156
0.234102 0.144834 3.126856 141 137 125
0.067338 0.093371 1.621215 114 110 98
0.021861 0.090492 1.371599 177 173 161
0.983313 0.517088 11.926504 189 185 174
1.053529 0.564597 12.933332 191 187 176
0.636619 0.435939 9.169230 192 189 172
0.687998 0.559655 11.189554 196 193 176
0.336412 0.088047 2.866318 197 193 184
0.401186 0.101358 3.367531 167 163 154
0.766942 0.171505 6.123489 162 157 151
0.824125 0.187263 6.625271 196 191 185
0.375261 0.109713 3.369472 203 199 188
0.402010 0.118185 3.620501 162 158 146
0.733717 0.199306 6.379009 196 191 185
0.153061 0.078765 1.867921 174 169 163
0.273908 0.108190 2.870998 159 154 150
0.391558 0.138646 3.874315 127 122 118
0.467099 0.165579 4.627753 131 126 120
0.458620 0.168312 4.628388 156 151 145
0.479376 0.178715 4.879865 174 170 161
0.470498 0.181577 4.880530 193 188 182
0.262568 0.128937 3.124879 183 178 172
0.256486 0.130897 3.125335 163 158 152
1.134782 0.394815 11.156577 131 126 120
0.073530 0.087302 1.620845 104 100 88
0.219996 0.142657 3.128067 133 129 117
0.356872 0.201102 4.636007 154 150 139
0.348393 0.203834 4.636642 150 146 135
0.331435 0.209299 4.637912 107 103 91
1.069053 0.552738 13.185752 182 178 166
0.698503 0.484136 10.430152 195 192 175
0.334399 0.293807 5.902848 196 193 176
0.342769 0.308203 6.155253 195 192 175
0.719287 0.545808 11.440722 194 191 174
0.700020 0.552017 11.442165 193 190 173
0.186602 0.238882 4.395726 193 190 173
0.126776 0.206884 3.641111 193 190 173
0.204849 0.057560 1.864147 197 193 182
0.491158 0.098500 3.867042 199 195 184
0.340280 0.080520 2.866173 198 194 183
0.370097 0.087561 3.116982 196 192 183
1.206427 0.217662 9.127357 174 169 163
0.566139 0.124289 4.620552 78 73 67
0.420455 0.104634 3.619294 133 128 122
0.413574 0.106852 3.619809 191 186 180
0.399812 0.111287 3.620840 180 176 165
0.482962 0.134443 4.373739 92 88 79
0.435298 0.133153 4.124266 196 191 187
0.272093 0.102494 2.871279 195 190 186
0.419938 0.138103 4.125416 193 188 184
0.464391 0.157079 4.628171 188 183 177
0.455912 0.159811 4.628806 173 168 162
1.175117 0.344309 10.900994 149 145 136
1.300189 0.387257 12.156837 121 117 106
0.254544 0.124800 3.125635 102 98 89
0.248462 0.126760 3.126090 114 110 101
0.242380 0.128720 3.126545 143 139 130
0.236299 0.130680 3.127001 172 168 157
0.230217 0.132640 3.127456 185 181 169
0.535068 0.234208 6.141129 189 185 173
0.227791 0.166724 3.633721 179 175 163
0.009908 0.087082 1.372661 148 144 132
0.770786 0.524565 11.690397 191 188 173
0.769839 0.541521 11.943509 191 188 173
0.561176 0.100306 4.368087 195 191 179
0.580389 0.110324 4.619700 197 193 184
0.327100 0.078485 2.867304 190 186 177
1.462338 0.247542 11.133007 118 113 107
0.411376 0.099954 3.620149 188 183 177
0.437870 0.107625 3.871217 197 192 186
0.423310 0.112317 3.872307 186 182 171
0.966254 0.229111 8.386584 108 104 95
0.115391 0.065666 1.617898 126 121 115
0.470162 0.145846 4.627954 113 108 102
0.821462 0.243354 7.891323 104 100 89
0.264765 0.114783 3.125024 120 116 104
0.258683 0.116743 3.125479 150 146 134
0.474851 0.176754 5.133707 183 179 168
0.465573 0.179744 5.134402 189 185 174
0.909032 0.328599 9.656129 201 197 185
0.995696 0.365507 10.661847 195 191 179
0.216111 0.130463 3.128667 186 182 170
0.867737 0.358116 9.912273 173 169 158
0.923424 0.388798 10.667259 162 158 147
0.334498 0.189566 4.638113 165 161 149
0.326019 0.192299 4.638748 183 179 167
0.023278 0.095351 1.624796 190 186 174
0.008540 0.100100 1.625899 191 188 173
0.080820 0.141644 2.632694 191 188 173
0.001171 0.102475 1.626451 192 189 174
0.215792 0.227821 4.647002 193 190 175
0.225106 0.241029 4.899357 193 190 175
0.233620 0.254494 5.151771 194 191 176
0.550516 0.094810 4.369091 195 191 179
0.394976 0.081865 3.368490 195 191 182
1.490758 0.233294 11.384420 172 167 161
1.183051 0.206317 9.382966 115 110 104
0.468792 0.105380 4.122148 186 181 175
0.461112 0.107855 4.122723 200 196 187
0.445752 0.112804 4.123874 195 191 179
0.438072 0.115279 4.124449 172 168 156
0.461642 0.123451 4.375746 154 150 138
0.453562 0.126055 4.376351 150 146 134
0.415033 0.122704 4.126174 152 148 136
0.407353 0.125179 4.126749 155 151 139
0.814790 0.214622 7.639108 157 153 141
0.450496 0.142811 4.629643 176 172 160
0.470869 0.152013 4.881179 177 174 159
0.234370 0.102088 2.874392 189 186 171
1.182492 0.332638 11.407504 192 188 176
0.471887 0.167452 5.134165 200 196 184
1.307483 0.386964 12.916517 200 196 184
0.174221 0.105704 2.625834 146 142 130
0.177548 0.120400 2.878647 98 94 83
0.059299 0.095437 1.875254 189 186 171
0.022101 0.091657 1.624977 171 167 156
0.335728 0.242867 5.650485 195 191 179
0.030711 0.104650 1.877395 193 189 177
0.065153 0.125086 2.380940 188 184 172
0.041406 0.116971 2.129656 189 185 173
0.240027 0.226406 4.898465 190 186 174
0.249213 0.239213 5.150839 189 185 173
0.239935 0.242203 5.151534 191 187 175
0.153915 0.206854 4.145727 187 183 171
0.843345 0.114117 6.371946 195 191 179
0.583452 0.090591 4.619902 194 190 178
0.420743 0.081723 3.619797 192 188 179
0.515618 0.097125 4.371909 159 154 148
0.491379 0.104937 4.373724 170 166 157
0.459061 0.115352 4.376144 198 195 178
0.481704 0.123381 4.627521 195 192 175
0.321612 0.098343 3.374148 197 194 177
0.554516 0.145894 5.381285 194 191 174
0.544130 0.164567 5.635135 190 186 174
0.589904 0.180467 6.137852 176 172 160
0.221191 0.100054 2.875524 157 153 141
1.300564 0.365245 12.917586 124 120 108
0.887952 0.344957 10.417761 183 179 168
0.846753 0.342908 10.167774 186 182 170
0.875746 0.364216 10.671747 172 168 156
0.191986 0.140118 3.383855 120 117 102
0.829540 0.425085 11.434424 119 115 104
0.261250 0.194426 4.644029 183 179 167
0.616133 0.085570 4.870752 190 186 174
0.642244 0.092039 5.121880 193 190 175
0.445455 0.081037 3.871204 199 195 186
0.538349 0.095753 4.623495 160 156 147
0.260652 0.066171 2.619631 73 69 60
1.267472 0.218003 10.642873 172 168 156
0.213411 0.066511 2.370086 186 182 170
0.115545 0.053397 1.618167 194 191 176
1.121484 0.220398 9.894558 193 190 175
1.165005 0.236141 10.397463 192 189 174
0.104492 0.056960 1.618995 185 182 167
1.159064 0.252940 10.650991 180 177 162
0.503073 0.136890 5.132301 159 155 143
0.493795 0.139880 5.132996 136 132 120
0.484517 0.142870 5.133691 116 112 100
0.558632 0.163638 5.887388 98 94 82
0.493359 0.154904 5.386111 101 97 85
0.483682 0.158023 5.386836 116 112 100
0.500603 0.167454 5.638651 146 142 130
0.516726 0.177143 5.890526 173 169 157
0.532049 0.187089 6.142461 182 178 166
0.510297 0.194099 6.144090 194 190 178
0.499420 0.197604 6.144904 195 191 179
0.561150 0.222363 6.899529 188 184 173
0.302971 0.156723 4.388038 185 181 169
0.294892 0.159327 4.388643 183 179 167
0.309416 0.169530 4.640638 128 124 112
0.357872 0.198567 5.396257 174 171 156
0.002427 0.074967 1.373555 114 110 98
0.143384 0.133731 3.134577 95 91 80
0.359575 0.227787 5.902294 178 174 162
0.190710 0.207785 4.649527 191 187 175
0.497835 0.391611 9.435094 190 186 174
0.449342 0.377470 8.932560 189 185 173
0.622176 0.073808 4.870526 194 190 178
0.116351 0.034622 1.365108 189 186 171
1.379898 0.234012 11.900376 122 118 107
0.202085 0.064763 2.371058 122 118 107
0.548334 0.126490 5.382240 110 106 95
1.174096 0.257007 11.156509 123 119 108
1.267508 0.284674 12.161884 137 133 122
1.302383 0.302320 12.665458 158 154 142
0.381185 0.122586 4.382387 183 179 167
0.373106 0.125190 4.382992 189 185 173
0.539452 0.172680 6.142183 193 189 177
0.631266 0.200862 7.147678 198 194 182
0.593518 0.198584 6.897412 197 193 181
0.332145 0.152833 4.639151 147 143 132
0.323666 0.155565 4.639786 110 106 94
0.077462 0.090482 2.127298 145 142 127
0.153606 0.123714 3.133966 179 175 163
0.141442 0.127634 3.134877 105 101 89
0.777887 0.384692 11.186179 178 174 162
0.663034 0.363936 10.182409 189 186 171
0.303845 0.234166 5.906733 191 187 175
0.360771 0.064230 3.371710 195 191 182
0.562093 0.097357 5.128353 174 170 161
0.490538 0.092415 4.627506 153 149 140
0.959011 0.165456 8.642068 138 134 123
0.584861 0.118021 5.632853 143 139 128
0.427082 0.098864 4.379155 153 149 138
0.419002 0.101467 4.379760 163 159 148
0.410923 0.104071 4.380365 178 174 163
0.516210 0.126144 5.384892 185 181 170
0.506533 0.129263 5.385616 190 186 174
0.607026 0.152881 6.390502 195 191 179
0.622893 0.161769 6.642416 197 194 179
0.397269 0.122472 4.634490 197 194 179
0.889326 0.229916 9.406594 193 190 175
0.068977 0.060259 1.621842 196 193 178
0.514225 0.168787 6.144348 197 193 181
0.266076 0.122749 3.885006 97 93 81
0.868879 0.348513 11.432947 190 186 174
0.172813 0.124802 3.385785 142 138 126
0.811079 0.367140 11.437275 129 123 111
0.831716 0.388492 11.941935 180 174 162
0.044265 0.110225 2.383000 191 187 175
0.193773 0.188052 4.649729 191 187 175
0.269069 0.233792 5.909604 191 187 175
0.677639 0.063423 5.373049 193 189 177
0.527720 0.084619 4.878050 190 186 175
0.518841 0.087480 4.878715 189 185 174
0.479351 0.086647 4.628559 189 185 174
0.652143 0.112317 6.134297 187 183 171
0.571565 0.111167 5.634105 192 188 176
0.301859 0.089610 3.629399 192 189 174
1.321567 0.276244 13.171328 193 190 173
0.532504 0.150873 6.143256 197 194 177
0.547045 0.159746 6.395280 197 194 177
0.560787 0.168877 6.647364 191 187 175
0.149937 0.084332 2.628324 122 118 106
0.668676 0.215464 8.157961 89 85 73
0.022274 0.057677 1.372320 159 157 144
0.656828 0.246400 8.665074 173 171 158
0.030956 0.068439 1.624782 152 150 137
0.170743 0.118305 3.386104 93 89 77
0.865438 0.355443 11.939920 108 102 90
0.865596 0.368951 12.193021 167 161 149
0.250418 0.160425 4.645702 189 185 173
0.328583 0.203031 5.905413 192 188 176
0.453435 0.271270 7.920967 191 187 175
0.276200 0.219912 5.909336 189 185 173
0.186246 0.027438 1.866370 194 190 178
0.802240 0.078158 6.629579 193 189 178
0.712581 0.093935 6.383170 193 189 177
0.793955 0.107064 7.136446 193 190 175
0.537611 0.084734 5.130658 193 190 175
0.519706 0.103622 5.385122 190 187 170
0.131453 0.058214 2.123596 188 185 166
0.285900 0.087147 3.630769 190 187 168
0.196432 0.089744 3.131222 111 107 95
0.239584 0.115190 3.887360 179 177 164
