ply
format ascii 1.0
element vertex 1178
property float x
property float y
property float z
property uchar red
property uchar green
property uchar blue
end_header
-2.713459 -0.729295 10.499927 156 156 146
-2.706503 -0.746187 10.495208 148 148 138
-1.673950 -0.339639 5.573491 138 138 128
-1.613184 -0.325315 5.297754 140 140 132
-1.666039 -0.358849 5.568124 149 149 141
-2.113904 -0.566365 7.748058 213 213 205
-2.108616 -0.579208 7.744470 224 224 216
-2.103327 -0.592052 7.740882 226 226 216
-1.538263 -0.345364 5.012413 231 231 221
-2.874100 -0.986750 11.546953 225 225 215
-2.021572 -0.628697 7.450904 226 226 216
-1.685585 -0.473274 5.815894 227 227 217
-2.286214 -0.795484 8.803001 226 226 216
-1.479956 -1.620183 6.614417 192 190 178
-1.475168 -1.631812 6.611168 189 187 174
-1.664634 -1.981156 7.912260 192 190 177
-2.134719 -2.782273 11.045305 187 185 172
-0.942831 -0.819982 3.201377 187 185 172
-1.176062 -1.224938 4.766671 177 175 162
-0.741876 -0.498534 1.892491 183 181 168
-1.207793 -1.309770 5.022708 179 177 164
-0.660682 -0.371929 1.368385 177 175 162
-2.204910 -3.097488 11.796454 174 172 159
-1.388804 -1.679649 6.318063 173 171 158
-0.886169 -0.795691 2.928424 172 170 155
-0.654862 -0.386063 1.364436 167 165 150
-0.691382 -0.459266 1.623723 140 138 125
-1.030038 -1.093876 3.964071 31 27 15
-1.623398 -2.243184 8.118791 41 35 23
-1.729535 -2.471109 8.894328 137 133 121
-2.020381 -3.059931 10.967730 213 209 198
-2.308560 -3.655229 13.039323 247 245 233
-2.115562 -3.314462 11.735834 189 190 176
-0.824975 -0.782405 2.652397 169 170 154
-0.713261 -0.568024 1.873076 161 162 144
-0.417225 -1.934480 2.610260 172 163 62
-0.566086 -5.458331 8.339472 171 162 61
-0.504387 -4.151157 6.187030 139 130 29
-0.553175 -5.489685 8.330712 156 147 46
-0.424818 -2.401708 3.318938 165 156 55
-0.624836 -7.744006 11.896965 160 151 50
-0.544751 -5.833921 8.794014 163 154 53
-0.596314 -7.489489 11.408596 146 137 36
-0.479641 -4.535029 6.639259 156 147 46
-0.512790 -5.749646 8.537820 143 134 33
-0.413408 -2.753197 3.780214 146 137 36
-0.410119 -2.761183 3.777983 188 179 78
-0.458486 -4.586403 6.624905 157 148 47
-0.494576 -6.117655 8.994481 181 172 71
-0.424081 -3.698616 5.194509 166 157 56
-0.419792 -3.709031 5.191599 151 142 41
-0.473709 -6.168329 8.980323 187 178 77
-0.383445 -2.502180 3.290868 149 140 39
-0.410230 -3.894140 5.419621 159 150 49
-1.277165 0.009889 3.434510 227 226 221
-0.790030 0.112902 1.224729 229 226 219
-0.969934 0.067541 2.051517 232 229 222
-0.846229 0.088629 1.497768 231 228 221
-1.084364 0.023929 2.598972 238 235 228
-0.843319 0.081562 1.495793 225 224 219
-0.841864 0.078028 1.494806 141 140 135
-2.384739 -0.354662 8.649242 109 108 103
-2.378950 -0.368720 8.645314 149 148 143
-2.297231 -0.406421 8.354961 232 229 220
-2.233211 -0.401140 8.076616 228 228 218
-1.587220 -0.201654 5.054328 226 226 216
-1.583598 -0.210449 5.051871 223 223 213
-2.158948 -0.420736 7.791321 214 214 204
-2.615502 -0.598010 9.980354 199 199 189
-2.608880 -0.614092 9.975861 180 180 170
-2.602258 -0.630174 9.971368 162 162 152
-2.595635 -0.646256 9.966875 148 148 138
-1.561866 -0.263224 5.037126 146 146 136
-2.582390 -0.678419 9.957889 153 153 143
-2.519038 -0.671519 9.679996 140 140 130
-1.211618 -0.149287 3.390038 132 132 122
-1.208996 -0.155654 3.388259 127 127 117
-1.656217 -0.355596 5.570959 117 117 107
-1.596198 -0.340600 5.295329 110 110 100
-2.039584 -0.549852 7.475427 208 208 198
-2.090192 -0.587702 7.744673 231 231 221
-0.750090 0.015910 1.197631 229 229 219
-2.240016 -0.706110 8.551051 226 226 216
-0.747513 0.009653 1.195883 226 226 216
-2.448025 -0.843966 9.631817 226 226 216
-0.963857 -0.107964 2.282302 226 226 216
-0.989324 -0.849856 3.474127 193 191 179
-1.463275 -1.627874 6.614600 191 189 176
-0.785939 -0.540023 2.161590 195 193 180
-0.744589 -0.479691 1.898626 188 186 173
-0.782028 -0.549519 2.158937 184 182 169
-0.936320 -0.817825 3.203256 186 184 171
-1.089277 -1.089370 4.246670 183 181 168
-2.131649 -2.898235 11.296439 187 185 172
-1.198384 -1.306654 5.025424 180 178 165
-1.079411 -1.113329 4.239977 176 174 162
-1.305491 -1.528796 5.802821 175 173 160
-1.339264 -1.607529 6.060644 171 169 156
-0.917966 -0.862395 3.190804 171 169 154
-0.651248 -0.384866 1.365479 168 166 151
-0.687354 -0.457932 1.624885 138 136 123
-1.022285 -1.091308 3.966309 31 27 15
-1.571960 -2.167676 7.862886 28 22 10
-2.001451 -3.053662 10.973194 209 205 194
-2.103513 -3.288057 11.747167 245 243 231
-2.095390 -3.307782 11.741656 183 184 170
-0.783064 -0.707752 2.394549 168 169 153
-0.889125 -0.932432 3.171236 158 159 141
-0.441415 -2.662645 3.807115 175 166 65
-0.438127 -2.670631 3.804884 152 143 42
-0.492080 -4.147081 6.190582 155 146 45
-0.620506 -7.693143 11.915537 155 146 45
-0.611550 -7.714892 11.909461 139 130 29
-0.602594 -7.736641 11.903384 160 151 50
-0.527891 -5.828338 8.798880 152 143 42
-0.506429 -5.398214 8.079591 143 134 33
-0.471796 -4.517835 6.646638 150 141 40
-0.402703 -2.435161 3.311031 148 139 38
-0.399748 -2.442337 3.309026 133 124 23
-0.498170 -6.061261 9.013624 179 170 69
-0.393837 -2.456690 3.305016 130 121 20
-0.390882 -2.463867 3.303011 185 176 75
-0.387927 -2.471044 3.301006 147 138 37
-0.413430 -3.695089 5.197583 150 141 40
-0.395579 -3.095450 4.245835 189 180 79
-0.456435 -6.162609 8.985309 180 171 70
-0.425021 -4.952917 7.084722 152 143 42
-0.454086 -6.811303 9.923352 168 159 58
-1.270654 0.012045 3.436389 227 226 221
-0.786831 0.113962 1.225653 229 226 219
-0.965493 0.069012 2.052798 231 228 221
-0.842616 0.089826 1.498811 233 230 223
-0.960128 0.055983 2.049158 235 232 225
-0.839706 0.082758 1.496836 216 215 210
-0.838251 0.079225 1.495849 136 135 130
-2.311380 -0.333532 8.378063 115 114 109
-2.246941 -0.330411 8.099034 145 144 139
-0.833885 0.068624 1.492887 244 244 236
-3.113279 -0.620657 12.216463 228 228 220
-1.530775 -0.154300 4.789421 233 230 221
-1.527319 -0.162691 4.787077 233 230 221
-1.523864 -0.171082 4.784733 222 222 210
-1.520409 -0.179472 4.782388 212 212 200
-2.093452 -0.383935 7.524277 195 195 183
-2.088330 -0.396374 7.520802 175 175 163
-2.083208 -0.408813 7.517327 162 162 150
-2.306685 -0.504538 8.610187 154 154 142
-2.414862 -0.561049 9.154202 149 149 137
-2.465556 -0.597547 9.423906 144 144 132
-2.176018 -0.502640 8.050915 142 142 130
-2.396495 -0.605651 9.141740 134 134 122
-1.489311 -0.254991 4.761289 122 122 110
-1.485855 -0.263382 4.758945 109 109 97
-1.538383 -0.295428 5.029893 93 93 81
-1.534761 -0.304224 5.027435 79 79 67
-1.586789 -0.337484 5.298044 66 66 54
-2.026864 -0.545640 7.479099 84 84 72
-2.021741 -0.558079 7.475623 230 230 220
-1.740871 -0.442122 6.108514 220 220 210
-1.516651 -0.348202 5.015148 220 220 210
-1.513029 -0.356998 5.012691 226 226 216
-1.509407 -0.365794 5.010233 225 225 215
-1.505785 -0.374590 5.007776 226 226 216
-2.479853 -0.882037 9.904225 226 226 216
-2.581530 -0.954334 10.443829 226 226 216
-1.890463 -2.313321 9.504341 193 191 179
-1.687268 -2.008736 8.189932 192 190 177
-1.172560 -1.183797 4.781693 190 188 175
-0.935052 -0.802935 3.208693 187 185 172
-1.669902 -2.050910 8.178149 189 187 174
-1.664113 -2.064968 8.174221 183 181 168
-1.542881 -1.880554 7.386040 182 180 167
-1.077821 -1.094652 4.246796 182 180 167
-2.028221 -2.776810 10.774354 180 178 165
-2.020765 -2.794916 10.769295 177 175 163
-1.257026 -1.457492 5.544929 176 174 161
-1.252904 -1.467503 5.542133 171 169 156
-0.911455 -0.860238 3.192683 173 171 156
-0.647634 -0.383670 1.366522 162 160 145
-0.683327 -0.456599 1.626047 145 143 130
-0.607743 -0.320936 1.104147 36 32 20
-0.790525 -0.675091 2.404707 32 28 17
-1.521351 -2.092443 7.606742 38 32 20
-2.018835 -3.118813 11.238605 220 216 204
-1.179658 -1.485769 5.257128 245 243 231
-2.075218 -3.301102 11.747478 178 179 165
-0.706166 -0.560739 1.876853 166 167 151
-1.916384 -3.048397 10.698476 161 162 144
-0.534834 -5.286136 8.113968 145 136 35
-0.616176 -7.642280 11.934109 177 168 67
-0.607220 -7.664029 11.928033 154 145 44
-0.598265 -7.685778 11.921956 161 152 51
-0.584332 -7.560008 11.677194 194 185 84
-0.503389 -5.362497 8.092633 174 165 64
-0.566753 -7.602696 11.665267 135 126 25
-0.490811 -5.393042 8.084099 151 142 41
-0.506073 -6.154004 9.271002 128 119 18
-0.475921 -5.588806 8.309306 177 168 67
-0.480895 -6.055540 9.018610 125 116 15
-0.386498 -2.454260 3.307134 190 181 80
-0.432217 -4.577704 6.632487 163 154 53
-0.433548 -4.893681 7.104010 155 146 45
-0.402779 -3.691562 5.200657 161 152 51
-0.377342 -2.795705 3.771541 182 173 72
-0.390577 -4.040403 5.662998 132 123 22
-0.396335 -5.143653 7.314072 167 158 57
-0.390547 -5.157711 7.310144 165 155 57
-0.381138 -4.861349 6.833141 139 129 31
-0.397044 -6.897587 9.902957 146 136 39
-0.373180 -5.199885 7.298361 127 117 20
-0.381799 -6.934608 9.892614 185 175 78
-0.374176 -6.953118 9.887442 159 149 52
-0.369483 -7.443330 10.590187 131 121 24
-0.362170 -7.620693 10.820535 175 165 68
-0.340377 -4.321915 5.864248 143 133 35
-0.337970 -5.125784 7.039163 135 125 27
-0.320748 -7.561679 10.557121 119 109 11
-0.303431 -8.082545 11.251302 132 122 24
-0.298475 -6.977347 9.600772 152 142 44
-0.286876 -7.963142 11.004760 168 158 60
-0.279278 -7.821990 10.764295 143 133 35
-0.268941 -8.166302 11.227901 167 157 59
-2.522104 -0.258664 9.241666 228 227 222
-3.292552 -0.447710 12.828622 230 227 220
-0.955686 0.057454 2.050440 235 232 225
-0.836092 0.083955 1.497879 210 209 204
-0.834637 0.080422 1.496892 132 131 126
-2.180278 -0.296445 7.831198 120 119 114
-2.174989 -0.309288 7.827610 152 151 146
-2.169701 -0.322132 7.824021 249 249 241
-1.525649 -0.143067 4.794242 227 227 219
-1.522193 -0.151458 4.791898 225 225 215
-1.518738 -0.159849 4.789554 214 211 202
-1.515283 -0.168240 4.787209 194 194 182
-1.511828 -0.176631 4.784865 171 172 158
-2.080731 -0.379723 7.527948 167 168 154
-1.276640 -0.113913 3.682457 161 161 149
-1.103144 -0.059846 2.857616 150 150 138
-1.271063 -0.127457 3.678673 143 143 131
-2.343089 -0.534924 8.884500 135 135 123
-2.337133 -0.549387 8.880459 127 127 115
-1.487640 -0.235367 4.768455 119 119 107
-1.035632 -0.065330 2.576101 103 103 91
-2.375168 -0.615484 9.141975 84 84 72
-1.362681 -0.221895 4.212253 76 77 63
-1.359559 -0.229477 4.210135 88 89 75
-1.356437 -0.237058 4.208017 85 86 72
-2.014143 -0.541427 7.482770 75 76 62
-2.009021 -0.553866 7.479295 111 111 101
-2.003899 -0.566305 7.475820 214 214 204
-2.053345 -0.604690 7.745078 215 215 205
-1.504034 -0.354019 5.015287 219 219 209
-1.500412 -0.362815 5.012830 219 219 209
-1.496790 -0.371611 5.010372 221 221 211
-1.493168 -0.380407 5.007915 223 223 213
-1.489546 -0.389202 5.005457 225 225 215
-0.897339 -0.718086 2.953693 191 189 177
-0.661482 -0.340070 1.379411 190 188 175
-0.660027 -0.343604 1.378424 188 186 173
-0.887519 -0.741935 2.947030 187 185 172
-1.190933 -1.272821 5.038567 184 182 169
-0.882608 -0.753860 2.943699 183 181 168
-1.069654 -1.091947 4.249153 182 180 167
-1.141833 -1.233593 4.769544 177 175 162
-2.039816 -2.856019 11.035837 177 175 162
-1.209389 -1.386463 5.286799 175 173 160
-0.645476 -0.378939 1.368552 174 172 159
-0.644021 -0.382473 1.367565 159 157 144
-1.009900 -1.078592 3.972902 134 132 119
-0.604544 -0.319877 1.105071 34 30 18
-1.471569 -2.017483 7.350359 36 30 18
-1.646614 -2.384715 8.647672 156 152 140
-1.927691 -2.969842 10.724054 218 214 202
-2.206102 -3.561446 12.798627 246 244 232
-2.197313 -3.582790 12.792664 181 182 168
-0.595525 -0.341778 1.098952 170 171 155
-1.897868 -3.042265 10.703820 154 155 137
-0.593935 -7.634915 11.940529 159 150 49
-0.584979 -7.656664 11.934452 134 125 24
-0.505078 -5.473757 8.344593 154 145 44
-0.498623 -5.489435 8.340213 137 128 27
-0.553715 -7.574124 11.677530 169 160 59
-0.388431 -2.112387 2.844124 165 156 55
-0.475193 -5.387870 8.088607 125 116 15
-0.488385 -6.148147 9.276107 179 170 69
-0.481262 -6.165443 9.271275 141 132 31
-0.375322 -2.144223 2.835230 158 149 48
-0.459895 -6.217331 9.256778 149 140 39
-0.422145 -4.724379 6.874066 170 161 60
-0.443987 -6.572889 9.717404 130 121 20
-0.390402 -3.850689 5.438270 183 174 73
-0.421887 -6.151168 8.995280 152 143 42
-0.421619 -6.627206 9.702228 166 157 56
-0.393537 -5.110776 7.326076 159 150 49
-0.400981 -6.835786 9.923936 123 114 13
-0.376170 -5.152950 7.314293 156 146 48
-0.370381 -5.167008 7.310366 152 142 44
-0.378114 -6.891318 9.908421 128 118 21
-0.371554 -7.065711 10.139680 184 174 77
-0.362869 -6.928339 9.898078 182 172 75
-0.355246 -6.946850 9.892906 137 127 30
-0.341436 -5.237298 7.290728 194 184 87
-0.340397 -7.141372 10.118541 139 129 32
-0.332608 -7.160287 10.113256 145 135 37
-0.325193 -8.129069 11.522485 146 136 38
-0.318176 -5.452245 7.510656 126 116 18
-0.312492 -5.307587 7.271089 158 148 50
-0.306703 -5.321645 7.267162 158 148 50
-0.290640 -8.054515 11.263332 132 122 24
-0.282018 -8.075454 11.257482 154 144 46
-0.264772 -8.117332 11.245782 138 128 30
-0.258692 -7.815173 10.770236 170 160 62
-0.243214 -8.645073 11.938284 152 142 44
-3.518212 -0.472189 13.946074 228 227 222
-3.509256 -0.493938 13.939998 230 227 220
-0.894211 0.077743 1.776916 234 231 224
-0.951245 0.058925 2.051722 240 237 230
-0.949456 0.054581 2.050509 206 203 196
-0.831023 0.081618 1.497935 134 134 126
-2.108988 -0.276000 7.559422 121 121 113
-2.103866 -0.288439 7.555947 151 151 143
-1.983100 -0.267069 7.001790 242 242 234
-1.401757 -0.105607 4.246263 210 210 202
-1.513612 -0.148616 4.794375 194 194 184
-0.822293 0.060417 1.492012 173 173 163
-2.078255 -0.350633 7.538570 166 166 154
-1.446258 -0.154861 4.512566 163 164 150
-1.954367 -0.336844 6.982295 154 155 141
-1.949578 -0.348474 6.979046 145 146 132
-1.944789 -0.360103 6.975797 137 137 125
-2.108966 -0.433374 7.795517 122 122 110
-2.272143 -0.509074 8.614559 109 109 97
-2.602285 -0.651274 10.255212 88 88 76
-2.595496 -0.667761 10.250606 82 82 70
-0.807742 0.025082 1.482139 91 91 79
-0.806287 0.021548 1.481152 105 105 93
-2.851738 -0.832101 11.605009 138 138 126
-2.347720 -0.640184 9.138056 196 197 183
-2.396586 -0.678837 9.407320 229 230 216
-2.609584 -0.790871 10.496274 236 237 223
-2.165387 -0.611000 8.306018 220 221 207
-1.614882 -0.374653 5.571413 214 214 204
-2.806003 -0.943164 11.573979 175 175 165
-2.040211 -0.600341 7.748869 208 208 198
-1.441051 -0.324826 4.745144 217 217 207
-1.491417 -0.359836 5.015426 214 214 204
-1.487795 -0.368632 5.012968 213 213 203
-1.484173 -0.377428 5.010511 213 213 203
-1.480551 -0.386224 5.008054 217 217 207
-0.891242 -0.716067 2.955453 190 188 176
-1.077930 -1.049312 4.262667 187 185 172
-0.992425 -0.942313 3.732434 186 184 171
-0.989470 -0.949490 3.730428 183 181 168
-2.373508 -3.409321 13.405537 180 178 165
-0.609075 -0.300045 1.111239 177 175 162
-0.607786 -0.303173 1.110365 178 176 163
-0.641862 -0.377743 1.369595 170 168 155
-0.640407 -0.381276 1.368608 158 156 143
-0.602633 -0.315688 1.106868 121 119 106
-0.601344 -0.318817 1.105994 32 28 16
-1.458434 -2.013134 7.354150 39 33 21
-1.631409 -2.379680 8.652060 168 164 152
-1.838203 -2.821420 10.209025 226 222 210
-2.184275 -3.554217 12.804927 241 239 226
-2.175486 -3.575562 12.798964 174 175 161
-0.592325 -0.340718 1.099875 164 165 149
-2.088268 -3.472721 12.267569 162 163 145
-0.585465 -7.751426 12.192402 142 133 32
-0.511256 -5.729155 8.836510 190 181 80
-0.455161 -4.134855 6.201238 172 163 62
-0.548974 -7.840041 12.167644 172 163 62
-0.472153 -5.352153 8.101649 162 153 52
-0.435339 -4.182991 6.187790 113 104 3
-0.430383 -4.195025 6.184427 161 152 51
-0.470697 -6.142289 9.281212 125 116 15
-0.463574 -6.159585 9.276380 133 124 23
-0.453303 -6.027208 9.033301 165 156 55
-0.368810 -2.142066 2.837109 131 122 21
-0.371820 -2.449399 3.311371 174 165 64
-0.392704 -3.814566 5.450532 215 206 105
-0.425480 -6.094774 9.014424 140 131 30
-0.395370 -4.594692 6.632892 200 191 90
-0.411569 -6.128556 9.004985 146 137 36
-0.384792 -4.620379 6.625716 150 141 40
-0.379503 -4.633222 6.622127 159 150 49
-0.379161 -5.106015 7.330226 178 169 68
-0.383367 -6.983644 10.166402 153 144 43
-0.374429 -6.848028 9.924228 153 143 45
-0.367788 -7.021474 10.155833 134 124 26
-0.359999 -7.040390 10.150548 182 172 74
-0.342481 -4.723127 6.597009 132 122 25
-0.338156 -5.048271 7.066295 151 141 44
-0.336001 -6.784026 9.662045 172 162 65
-0.321053 -7.134966 10.124124 179 169 71
-0.312340 -7.942727 11.298764 190 180 82
-0.303386 -5.447347 7.514925 152 142 44
-0.298115 -5.302826 7.275239 185 175 77
-0.292326 -5.316884 7.271311 107 97 0
-0.269227 -8.047423 11.269513 178 168 70
-0.276009 -5.985791 8.204681 163 153 55
-0.243359 -8.110241 11.251962 159 149 51
-0.236421 -7.969768 11.011145 160 150 52
-0.227965 -7.990303 11.005408 157 147 49
-3.377820 -0.439385 13.399311 228 227 222
-3.487014 -0.486573 13.946417 231 228 221
-1.946154 -0.167793 6.751714 230 227 220
-1.824715 -0.150340 6.196300 235 232 225
-0.946803 0.060395 2.053004 241 238 231
-1.177314 -0.004540 3.155441 202 199 192
-0.827410 0.082815 1.498978 134 131 124
-0.883696 0.063324 1.773677 122 122 114
-1.918421 -0.235139 6.732898 127 127 119
-1.913799 -0.246364 6.729762 194 194 186
-1.394004 -0.103040 4.248501 173 173 165
-0.991359 0.012417 2.319744 166 166 156
-2.013749 -0.316000 7.270596 161 161 151
-1.952052 -0.309648 6.992226 161 161 149
-1.438091 -0.152156 4.514923 153 153 141
-1.886066 -0.313710 6.710946 143 143 131
-2.106409 -0.403338 7.806485 123 123 111
-0.811404 0.043946 1.488118 106 106 94
-0.809949 0.040412 1.487131 101 101 89
-0.808494 0.036879 1.486144 99 99 87
-0.807039 0.033345 1.485157 98 98 86
-0.805583 0.029812 1.484170 116 116 104
-0.804128 0.026278 1.483182 177 177 165
-0.802673 0.022745 1.482195 234 234 222
-0.801218 0.019211 1.481208 230 230 218
-0.907457 -0.035153 2.026309 219 219 207
-1.232115 -0.183816 3.665643 220 220 208
-2.145803 -0.620030 8.306233 214 214 204
-2.140181 -0.633683 8.302419 209 209 199
-2.027076 -0.595991 7.752660 189 189 179
-1.486044 -0.348062 5.020479 200 200 190
-1.429014 -0.330376 4.745276 207 207 197
-1.425559 -0.338767 4.742932 205 205 195
-1.422104 -0.347158 4.740587 206 206 196
-1.471556 -0.383245 5.010650 211 211 201
-0.923384 -0.777365 3.219668 191 189 177
-1.263414 -1.357232 5.578963 193 191 178
-1.600444 -1.944384 7.936224 193 191 178
-1.594822 -1.958038 7.932409 183 181 168
-0.612317 -0.283341 1.116533 191 189 176
-0.835463 -0.678518 2.686995 185 183 170
-0.982131 -0.947060 3.732547 186 184 171
-0.645524 -0.358878 1.375574 181 179 166
-2.259130 -3.312205 12.876823 179 177 164
-2.323485 -3.468279 13.393507 174 172 159
-2.314362 -3.490433 13.387318 174 172 159
-0.746965 -0.581070 2.153931 171 169 156
-0.636794 -0.380080 1.369651 168 166 153
-0.814866 -0.728535 2.673021 110 108 95
-0.598145 -0.317758 1.106918 33 29 17
-1.379444 -1.856353 6.840239 35 31 19
-1.480705 -2.078983 7.618473 44 38 26
-1.616205 -2.374645 8.656448 174 170 158
-1.785443 -2.744554 9.953824 232 228 216
-0.731324 -0.619054 2.143319 242 240 227
-0.729369 -0.623801 2.141992 180 181 167
-0.589126 -0.339659 1.100799 168 169 153
-0.759864 -0.705925 2.399193 161 162 144
-0.562810 -7.743924 12.198941 183 174 73
-0.447809 -4.118746 6.208152 161 152 51
-0.540496 -7.641933 11.947291 134 125 24
-0.527638 -7.516979 11.702057 173 164 63
-0.522584 -7.685431 11.935138 133 124 23
-0.456534 -5.346981 8.106156 167 158 57
-0.423032 -4.178916 6.191342 186 177 76
-0.453009 -6.136432 9.286317 160 151 50
-0.442985 -6.004596 9.043006 161 152 51
-0.408680 -4.526124 6.654625 114 105 4
-0.387982 -3.639321 5.221519 155 146 45
-0.383693 -3.649736 5.218609 151 142 41
-0.379404 -3.660151 5.215699 140 131 30
-0.387524 -4.577499 6.640272 200 191 90
-0.370826 -3.680981 5.209879 150 141 40
-0.370007 -3.995326 5.682345 209 200 99
-0.396747 -7.053946 10.430698 175 166 65
-0.352354 -3.101127 4.251304 157 148 47
-0.364023 -6.977238 10.171985 134 125 24
-0.347876 -6.860270 9.924520 172 162 64
-0.340655 -7.033984 10.156131 128 118 20
-0.329581 -4.874386 6.837470 149 139 42
-0.325009 -6.915802 9.909005 151 141 44
-0.317386 -6.934312 9.903833 127 117 20
-0.290926 -7.935636 11.304944 136 126 28
-0.293786 -5.586023 7.759226 172 162 64
-0.295121 -4.333358 5.868047 154 144 46
-0.284838 -5.139219 7.043623 137 127 29
-0.256436 -8.019393 11.281543 160 150 52
-0.247813 -8.040332 11.275693 140 130 32
-0.261575 -5.820421 7.973883 148 138 40
-0.215422 -7.962814 11.017206 142 132 34
-0.206966 -7.983349 11.011469 171 161 63
-3.473729 -0.457459 13.958913 228 227 222
-3.464773 -0.479207 13.952837 230 227 220
-2.055953 -0.179551 7.311132 232 229 222
-1.178582 0.015366 3.162198 231 228 221
-1.408104 -0.047402 4.265566 227 224 217
-0.942362 0.061866 2.054286 240 237 230
-0.767590 0.102556 1.224976 201 198 191
-0.881290 0.068596 1.775940 135 132 125
-0.822341 0.080478 1.499034 124 124 116
-2.307068 -0.344916 8.666061 118 118 110
-1.104402 -0.009740 2.874958 117 117 109
-2.295491 -0.373031 8.658206 136 136 128
-2.289702 -0.387089 8.654278 168 168 158
-1.323513 -0.097790 3.971262 157 157 147
-1.376885 -0.123216 4.244384 142 142 130
-1.879210 -0.298685 6.717395 136 136 124
-0.810700 0.052210 1.491136 122 122 110
-0.809245 0.048676 1.490149 120 120 108
-0.807790 0.045143 1.489161 136 136 124
-0.806335 0.041609 1.488174 167 167 155
-0.804880 0.038075 1.487187 169 169 157
-0.803425 0.034542 1.486200 214 214 202
-0.801970 0.031008 1.485212 239 239 227
-0.800515 0.027475 1.484225 227 227 215
-0.799060 0.023941 1.483238 233 233 221
-2.595903 -0.728756 10.520403 234 234 224
-1.285094 -0.191086 3.945196 236 236 226
-1.823744 -0.433378 6.679763 233 233 223
-0.793239 0.009807 1.479289 229 229 219
-0.953266 -0.066690 2.298595 227 227 219
-1.970859 -0.541229 7.490309 218 218 208
-2.126218 -0.629059 8.306449 209 209 199
-2.120596 -0.642712 8.302634 196 196 186
-1.955492 -0.578545 7.479883 187 187 177
-1.950370 -0.590984 7.476408 204 204 194
-0.835881 -0.041677 1.745131 200 200 190
-0.834259 -0.045616 1.744031 202 202 192
-0.916873 -0.775209 3.221547 190 188 176
-1.253177 -1.353842 5.581918 196 194 181
-2.373811 -3.283548 13.449562 185 183 170
-1.872505 -2.485463 10.029599 188 186 173
-1.939533 -2.632762 10.548897 186 184 171
-0.864316 -0.747802 2.948978 185 183 170
-0.898519 -0.819778 3.209095 181 179 166
-1.151340 -1.291075 5.039002 182 180 167
-1.837727 -2.569920 10.006003 179 177 164
-0.746020 -0.569967 2.157985 178 176 163
-0.708073 -0.507082 1.895328 173 171 158
-0.742110 -0.579462 2.155332 176 174 161
-0.633180 -0.378883 1.370694 163 161 148
-1.377049 -1.828209 6.850515 104 102 89
-0.983519 -1.078471 3.977497 30 26 14
-1.331979 -1.782620 6.583026 34 30 18
-1.467157 -2.074496 7.622384 53 47 35
-1.566176 -2.299144 8.400298 181 177 165
-0.624449 -0.400084 1.364770 234 230 218
-1.933671 -3.112105 11.255653 235 233 220
-0.724514 -0.622194 2.143393 172 173 159
-0.654242 -0.482770 1.621895 166 167 151
-1.740346 -2.806399 9.939933 151 153 132
-0.536166 -7.591070 11.965863 153 144 43
-0.527210 -7.612819 11.959787 165 156 55
-0.514600 -7.488407 11.714320 158 149 48
-0.397690 -2.966212 4.290762 163 154 53
-0.394068 -2.975008 4.288305 151 142 41
-0.415681 -4.162806 6.198256 164 155 54
-0.419688 -4.618181 6.911707 143 134 33
-0.411412 -4.483244 6.669181 172 163 62
-0.435321 -6.130574 9.291422 148 139 38
-0.385908 -3.614964 5.230412 133 124 23
-0.377331 -3.635794 5.224593 145 136 35
-0.375030 -3.796418 5.459942 119 110 9
-0.379679 -4.560305 6.647651 186 177 76
-0.374390 -4.573149 6.644063 143 134 33
-0.360176 -3.677454 5.212953 148 139 38
-0.365133 -4.750664 6.874693 157 148 47
-0.360831 -4.916145 7.108686 130 121 20
-0.348297 -3.861336 5.441805 164 155 54
-0.343841 -3.872155 5.438782 161 152 51
-0.344679 -6.970832 10.177568 165 156 55
-0.336569 -6.835491 9.935155 149 139 41
-0.328946 -6.854001 9.929983 104 94 0
-0.317826 -3.315189 4.473488 143 133 35
-0.310231 -5.039024 7.074355 125 115 18
-0.298456 -6.928044 9.909297 187 177 80
-0.290834 -6.946554 9.904125 154 144 46
-0.298441 -4.137442 5.644890 165 155 57
-0.269512 -7.928545 11.311124 186 176 78
-0.282120 -5.107289 7.055282 133 123 25
-0.272459 -5.595856 7.759460 143 133 35
-0.243645 -7.991362 11.293574 158 148 50
-0.235022 -8.012302 11.287724 121 111 13
-0.226399 -8.033241 11.281874 131 121 23
-0.194422 -7.955860 11.023267 182 172 74
-0.185966 -7.976394 11.017530 146 136 38
-1.412839 -0.014509 4.276276 228 227 222
-1.409717 -0.022091 4.274158 229 226 219
-1.406595 -0.029672 4.272040 230 227 220
-1.403473 -0.037254 4.269922 230 227 220
-1.400351 -0.044835 4.267804 230 227 220
-1.397229 -0.052416 4.265686 211 208 201
-0.878885 0.073868 1.778203 176 173 166
-0.877263 0.069929 1.777102 143 140 133
-0.875641 0.065991 1.776002 126 126 118
-0.817272 0.078141 1.499089 117 117 109
-0.928978 0.041621 2.049501 100 100 92
-2.224701 -0.351373 8.386769 67 67 59
-2.275325 -0.382329 8.658428 89 89 79
-1.316173 -0.095360 3.973380 130 130 120
-1.313218 -0.102537 3.971375 115 115 105
-1.700491 -0.239332 5.895307 113 113 103
-0.807087 0.053406 1.492179 130 130 120
-0.805632 0.049873 1.491192 182 182 172
-0.804177 0.046339 1.490204 191 191 179
-0.802721 0.042806 1.489217 219 219 207
-0.801266 0.039272 1.488230 226 226 214
-0.799811 0.035739 1.487243 221 221 209
-0.796901 0.028671 1.485268 227 227 215
-2.585584 -0.706144 10.530108 233 233 223
-3.173508 -0.971249 13.539420 235 235 225
-3.164718 -0.992593 13.533457 232 232 224
-1.812265 -0.429577 6.683076 233 233 225
-1.914803 -0.488359 7.227268 232 231 226
-1.909847 -0.500393 7.223905 235 234 229
-1.904892 -0.512427 7.220543 235 235 225
-2.059176 -0.599442 8.037154 226 226 216
-2.106633 -0.638089 8.306664 212 212 202
-0.993336 -0.109876 2.567788 175 175 165
-1.885070 -0.560563 7.207095 197 197 187
-1.880114 -0.572597 7.203732 205 205 195
-0.830231 -0.044282 1.745193 208 208 198
-2.182681 -0.761199 8.832883 210 210 200
-1.398031 -0.358256 4.740852 211 211 199
-1.342829 -0.338415 4.466088 210 210 198
-1.339541 -0.346401 4.463857 210 210 198
-2.415924 -0.964257 10.177687 211 211 199
-1.384210 -0.391820 4.731475 211 211 199
-2.810982 -1.236038 12.344212 212 212 200
-1.377299 -0.408602 4.726786 213 213 201
-1.373844 -0.416993 4.724442 214 214 202
-1.420968 -0.456449 4.993725 214 214 202
-1.417346 -0.465245 4.991268 214 214 202
-1.413724 -0.474040 4.988810 215 215 203
-1.410102 -0.482836 4.986353 216 216 204
-1.406480 -0.491632 4.983895 218 218 206
-1.402858 -0.500428 4.981438 221 221 209
-1.399236 -0.509223 4.978981 222 222 210
-0.872950 -0.710010 2.960733 189 187 175
-1.093962 -1.096660 4.534550 194 192 179
-1.238819 -1.360462 5.582076 187 185 172
-0.860674 -0.739821 2.952404 186 184 171
-0.858219 -0.745783 2.950738 185 183 170
-0.855764 -0.751745 2.949072 182 180 167
-0.997620 -1.022833 3.994562 182 180 167
-1.174053 -1.363846 5.300823 175 173 160
-1.170098 -1.373452 5.298140 175 173 160
-0.703632 -0.505611 1.896610 172 170 157
-0.701844 -0.509954 1.895397 173 171 158
-0.629566 -0.377686 1.371736 161 159 146
-0.803500 -0.724771 2.676301 95 93 80
-0.975766 -1.075903 3.979735 31 27 15
-1.320087 -1.778682 6.586459 35 31 19
-1.419031 -2.000085 7.365523 44 38 26
-1.585796 -2.364575 8.665225 153 149 137
-0.620836 -0.398888 1.365813 222 218 206
-1.846172 -2.963421 10.740372 231 229 216
-0.719658 -0.620586 2.144795 174 175 161
-2.067469 -3.503272 12.551694 163 164 148
-2.058847 -3.524211 12.545844 155 157 136
-0.417430 -3.662918 5.499410 174 165 64
-0.504969 -7.605454 11.966206 175 166 65
-0.489532 -7.335155 11.481110 135 126 25
-0.370252 -2.084661 2.856978 148 139 38
-0.478101 -7.670700 11.947977 178 169 68
-0.365008 -2.097395 2.853420 171 162 61
-0.431878 -6.090124 9.306192 163 154 53
-0.424755 -6.107420 9.301360 147 138 37
-0.417633 -6.124717 9.296528 121 112 11
-0.375257 -3.611437 5.233486 170 161 60
-0.355713 -2.427755 3.321736 129 120 19
-0.366680 -3.632267 5.227667 144 135 34
-0.362391 -3.642682 5.224757 174 165 64
-0.366544 -4.555956 6.651442 133 124 23
-0.361255 -4.568800 6.647854 166 157 56
-0.367776 -6.245790 9.262701 161 152 51
-0.361560 -6.414777 9.495795 127 118 17
-0.348129 -6.755180 9.961305 151 142 41
-0.336031 -5.091733 7.342674 141 132 31
-0.323352 -2.814127 3.774402 158 149 48
-0.317639 -6.829222 9.940619 143 134 33
-0.310017 -6.847733 9.935447 168 158 60
-0.302394 -6.866243 9.930275 136 126 28
-0.294772 -6.884754 9.925104 149 139 41
-0.287149 -6.903264 9.919932 180 170 73
-0.278600 -7.077918 10.151443 132 122 24
-0.263022 -7.115749 10.140873 150 140 42
-0.253806 -7.292022 10.371932 122 112 14
-0.268157 -5.102665 7.059312 173 163 65
-0.232614 -7.805165 11.069487 181 171 73
-0.222231 -7.984271 11.299754 158 148 50
-0.247104 -5.461579 7.519650 139 129 31
-0.207246 -7.866768 11.052276 149 139 41
-0.173422 -7.948906 11.029328 134 124 26
-1.405086 -0.011942 4.278514 230 229 224
-1.401964 -0.019523 4.276396 223 222 217
-1.398842 -0.027105 4.274278 221 221 213
-1.453053 -0.048209 4.548770 212 212 204
-1.449764 -0.056195 4.546539 187 187 177
-1.389476 -0.049849 4.267923 168 168 158
-1.386354 -0.057430 4.265805 157 157 147
-0.873235 0.071263 1.778265 153 153 143
-0.871613 0.067325 1.777165 143 143 133
-0.869992 0.063387 1.776064 126 126 116
-2.553358 -0.431232 10.049526 106 106 96
-2.322737 -0.380271 8.942210 52 52 44
-2.205116 -0.360402 8.386984 59 59 51
-2.199494 -0.374055 8.383170 69 69 61
-0.750884 0.079645 1.219830 87 87 79
-0.804928 0.058137 1.494209 116 116 108
-0.803473 0.054603 1.493222 184 184 176
-0.802018 0.051069 1.492235 219 219 211
-0.800563 0.047536 1.491247 225 225 217
-0.799108 0.044002 1.490260 223 223 213
-2.197271 -0.532205 8.619373 234 234 224
-2.460645 -0.656378 9.986623 233 233 223
-2.454023 -0.672460 9.982130 237 237 227
-2.447400 -0.688541 9.977637 234 234 226
-1.960784 -0.495487 7.508078 233 233 225
-1.955662 -0.507926 7.504603 232 232 224
-1.945418 -0.532804 7.497652 229 229 221
-1.992961 -0.570099 7.767621 237 237 227
-2.040172 -0.608204 8.037363 234 234 224
-2.034716 -0.621452 8.033662 199 199 189
-0.985945 -0.113284 2.567870 172 172 162
-1.867808 -0.568522 7.207284 210 210 200
-1.862852 -0.580556 7.203922 204 204 194
-1.599568 -0.456164 5.836734 205 205 195
-0.771461 -0.023135 1.471503 206 206 194
-0.718674 0.001426 1.197976 203 203 191
-0.717385 -0.001703 1.197102 201 201 189
-1.379084 -0.380587 4.736296 207 207 195
-1.375629 -0.388978 4.733951 210 210 198
-1.321508 -0.367655 4.459520 208 208 196
-2.681690 -1.188845 11.800576 212 212 200
-1.314930 -0.383628 4.455058 211 211 199
-2.465449 -1.102963 10.703017 208 208 196
-1.358352 -0.430933 4.722230 212 212 200
-1.454561 -0.502800 5.262928 212 212 200
-1.500438 -0.544143 5.531765 211 211 199
-1.347986 -0.456106 4.715197 215 215 203
-1.344531 -0.464497 4.712852 218 218 206
-1.390241 -0.506245 4.981577 220 220 208
-1.088837 -1.085427 4.539371 192 190 178
-2.227131 -3.056457 12.680729 195 193 180
-1.301910 -1.484503 6.110204 191 189 176
-0.786493 -0.597636 2.432547 182 180 167
-0.639049 -0.344688 1.381665 189 187 174
-0.854577 -0.737802 2.954163 189 187 174
-0.852122 -0.743764 2.952498 182 180 167
-0.849666 -0.749726 2.950832 177 175 162
-1.025530 -1.086410 4.258708 181 179 166
-1.022242 -1.094397 4.256477 175 173 160
-1.442918 -1.905830 7.394433 174 172 159
-1.859594 -2.726979 10.529674 172 170 157
-1.852305 -2.744680 10.524728 167 165 152
-0.625953 -0.376490 1.372779 159 157 144
-1.560418 -2.231497 8.424999 84 82 69
-0.968013 -1.073336 3.981973 33 31 18
-1.308194 -1.774744 6.589891 35 33 21
-1.405896 -1.995735 7.369314 54 50 38
-1.502598 -2.219156 8.148058 184 178 166
-0.617222 -0.397691 1.366856 238 232 218
-1.793992 -2.886288 10.485165 229 226 211
-0.647809 -0.476165 1.625320 176 177 163
-2.046056 -3.496181 12.557875 159 162 145
-1.175182 -1.639500 5.786512 154 157 138
-0.491683 -7.576339 11.978702 161 152 51
-0.434836 -5.270376 8.136747 148 139 38
-0.473771 -7.619837 11.966549 161 152 51
-0.363740 -2.082505 2.858857 143 134 33
-0.425941 -5.902978 9.081559 132 123 22
-0.409680 -5.331465 8.119680 169 160 59
-0.407067 -6.101563 9.306465 144 135 34
-0.399945 -6.118859 9.301633 178 169 68
-0.409420 -7.623358 11.685177 177 168 67
-0.385700 -6.153452 9.291968 154 145 44
-0.377251 -6.021218 9.048524 178 169 68
-0.359858 -4.688697 6.897320 129 120 19
-0.353410 -4.551606 6.655233 171 162 61
-0.348121 -4.564450 6.651645 144 135 34
-0.350088 -6.239933 9.267806 136 127 26
-0.343458 -6.408783 9.501020 148 139 38
-0.326327 -4.006371 5.686012 162 153 52
-0.321569 -6.920190 10.199304 170 161 60
-0.306332 -6.804443 9.951254 138 129 28
-0.298709 -6.822953 9.946082 156 147 46
-0.299847 -4.834429 6.856604 120 110 12
-0.283464 -6.859974 9.935739 112 102 5
-0.275842 -6.878485 9.930567 169 159 64
-0.268219 -6.896996 9.925396 121 111 14
-0.275343 -5.199436 7.315402 207 197 99
-0.258744 -5.697999 8.017274 168 158 61
-0.252455 -5.713272 8.013007 184 174 76
-0.254195 -5.098042 7.063342 153 143 45
-0.207266 -8.114271 11.548022 134 124 26
-0.200817 -7.977180 11.305935 157 147 49
-0.192195 -7.998119 11.300085 157 147 49
-0.223684 -5.630388 7.755776 118 108 10
-0.174950 -8.039998 11.288384 188 178 80
-0.169334 -7.900883 11.046863 170 160 62
-0.160878 -7.921417 11.041126 141 131 33
-0.152423 -7.941952 11.035389 177 167 69
-0.147474 -7.801218 10.794320 143 133 35
-1.397333 -0.009375 4.280752 225 224 219
-1.451463 -0.029532 4.555590 212 211 206
-1.448175 -0.037518 4.553358 196 196 188
-1.444886 -0.045504 4.551127 169 169 161
-1.384845 -0.039700 4.272279 153 153 143
-0.929037 0.066279 2.058132 153 153 143
-1.322182 -0.040263 3.991652 159 159 147
-1.375479 -0.062444 4.265925 155 155 143
-1.372357 -0.070026 4.263807 145 145 133
-1.369235 -0.077607 4.261688 133 133 123
-2.313903 -0.360910 8.950520 109 109 101
-0.807135 0.073467 1.499201 61 61 53
-0.805680 0.069934 1.498214 72 71 66
-0.804225 0.066400 1.497226 107 106 101
-0.802770 0.062867 1.496239 176 176 168
-0.801315 0.059333 1.495252 224 224 216
-0.799860 0.055800 1.494265 227 226 221
-0.798404 0.052266 1.493278 233 232 227
-1.341138 -0.145839 4.242625 229 229 221
-2.043293 -0.411627 7.814472 229 229 219
-2.038005 -0.424470 7.810883 233 230 221
-1.543658 -0.260470 5.332477 237 235 223
-0.950430 -0.033379 2.310758 238 235 226
-1.268987 -0.169442 3.955561 237 234 225
-3.076601 -0.934502 13.277778 237 234 225
-2.006271 -0.501532 7.789353 236 233 226
-1.895145 -0.468175 7.237734 235 232 225
-0.782399 0.013397 1.482418 236 233 226
-1.832649 -0.468333 6.957220 236 233 228
-1.974538 -0.578593 7.767823 238 235 226
-2.021168 -0.616965 8.037572 226 223 214
-2.015712 -0.630214 8.033871 174 171 162
-1.855501 -0.564447 7.210836 180 177 168
-1.850546 -0.576481 7.207474 218 215 206
-1.738464 -0.545443 6.655207 209 209 197
-2.854047 -1.171736 12.650559 208 208 196
-1.069448 -0.199180 3.105844 206 206 194
-1.066993 -0.205142 3.104178 206 206 194
-1.165374 -0.269449 3.647151 205 205 193
-1.313341 -0.364951 4.461877 203 203 191
-1.360137 -0.402919 4.731739 207 207 195
-1.356682 -0.411309 4.729395 208 208 196
-1.353226 -0.419700 4.727051 207 207 195
-1.349771 -0.428091 4.724706 209 209 197
-1.346316 -0.436482 4.722362 210 210 198
-0.850345 -0.124818 2.004741 210 210 198
-1.781169 -0.744957 7.160404 212 212 200
-1.335950 -0.461655 4.715329 210 210 198
-1.332494 -0.470046 4.712985 215 215 203
-2.023634 -2.733496 11.372812 189 187 174
-0.710845 -0.463581 1.910095 188 186 173
-0.709057 -0.467924 1.908881 184 182 169
-0.635435 -0.343491 1.382708 191 189 176
-1.241729 -1.448505 5.841962 186 184 171
-0.846024 -0.741745 2.954258 184 182 169
-0.631070 -0.354092 1.379746 181 179 166
-0.629615 -0.357625 1.378759 181 179 166
-1.014074 -1.091692 4.258834 175 173 160
-1.778949 -2.569650 10.016241 175 173 160
-1.424495 -1.914324 7.394635 169 167 154
-1.695871 -2.468180 9.483651 169 167 154
-0.587923 -0.307262 1.112360 147 145 132
-1.648376 -2.431907 9.213315 73 71 58
-0.585346 -0.313519 1.110612 36 34 21
-1.296301 -1.770806 6.593324 34 32 20
-1.359012 -1.921736 7.112095 50 46 34
-1.488222 -2.214395 8.152208 196 190 176
-0.613609 -0.396494 1.367899 230 224 210
-1.742641 -2.809429 10.229719 220 217 202
-0.776113 -0.759909 2.668713 175 173 160
-2.090475 -3.632438 13.084945 158 161 144
-1.917771 -3.293792 11.777211 156 159 140
-0.425506 -5.249931 8.145522 163 154 53
-0.419217 -5.265204 8.141255 196 187 86
-0.451530 -7.612472 11.972969 134 125 24
-0.357229 -2.080349 2.860736 192 183 82
-0.435697 -7.802529 12.200338 190 181 80
-0.426574 -7.824682 12.194149 177 168 67
-0.370429 -4.322422 6.441371 158 149 48
-0.396381 -7.594786 11.697440 107 98 0
-0.373888 -5.981715 9.062948 152 143 42
-0.368012 -6.147594 9.297073 179 170 69
-0.345378 -3.625213 5.233815 122 113 12
-0.341089 -3.635628 5.230905 192 183 82
-0.340275 -4.547257 6.659024 155 146 45
-0.334986 -4.560100 6.655435 189 180 79
-0.333382 -6.838123 10.226026 168 159 58
-0.325751 -7.159872 10.697072 129 120 19
-0.320172 -2.776773 3.788042 175 166 65
-0.316374 -3.089212 4.261689 164 155 54
-0.314016 -2.640115 3.545753 157 148 47
-0.287402 -6.798174 9.956717 157 148 47
-0.279779 -6.816685 9.951546 163 154 53
-0.264534 -6.853706 9.941202 152 142 47
-0.256912 -6.872216 9.936031 114 104 9
-0.244526 -7.357120 10.641963 150 140 43
-0.234649 -7.532715 10.873373 149 139 41
-0.228281 -7.396570 10.630941 143 133 36
-0.213894 -7.886332 11.335516 181 171 74
-0.221054 -6.807685 9.673590 142 132 34
-0.240233 -5.093418 7.067372 172 162 64
-0.179404 -7.970089 11.312115 141 131 33
-0.170781 -7.991028 11.306265 103 93 0
-0.165247 -7.852860 11.064398 154 144 46
-0.153536 -8.032907 11.294565 147 137 39
-0.151756 -7.734012 10.817133 127 117 19
-0.143467 -7.754141 10.811509 186 176 78
-0.135178 -7.774271 10.805885 151 141 43
-0.126888 -7.794401 10.800261 169 159 61
-1.446585 -0.018841 4.560178 203 202 197
-2.068520 -0.163654 7.605777 177 177 169
-1.383336 -0.021970 4.278753 154 154 146
-1.380214 -0.029551 4.276635 152 152 142
-1.377092 -0.037133 4.274517 154 154 144
-1.373970 -0.044714 4.272399 149 149 137
-1.370848 -0.052295 4.270281 142 143 127
-1.367726 -0.059877 4.268162 135 136 120
-1.976993 -0.235453 7.305167 113 114 100
-1.361482 -0.075039 4.263926 107 107 95
-1.358360 -0.082621 4.261808 87 87 79
-1.355238 -0.090202 4.259690 97 96 91
-1.352116 -0.097784 4.257572 153 152 148
-1.348994 -0.105365 4.255454 227 226 222
-1.345872 -0.112946 4.253335 231 230 225
-1.342750 -0.120528 4.251217 222 221 216
-3.078452 -0.720447 13.061231 230 229 224
-2.419938 -0.513997 9.752302 228 227 222
-1.981443 -0.375113 7.546698 234 233 228
-2.030159 -0.407277 7.818263 233 233 225
-2.024870 -0.420121 7.814674 235 232 223
-2.554629 -0.638309 10.559223 233 231 219
-1.956115 -0.587087 7.768026 232 229 220
-2.002164 -0.625727 8.037781 224 221 212
-1.843194 -0.560371 7.214388 145 142 133
-1.838239 -0.572405 7.211026 201 198 189
-1.833283 -0.584439 7.207664 209 206 197
-2.328417 -0.886713 9.928720 203 203 193
-1.365377 -0.366513 4.743593 204 204 194
-1.562606 -0.489425 5.831456 204 204 194
-0.858423 -0.092946 2.014517 201 201 191
-1.105823 -0.244487 3.374932 198 198 188
-2.543660 -1.116345 11.267317 202 202 192
-1.348100 -0.408468 4.731872 205 205 195
-1.344645 -0.416859 4.729527 206 206 196
-1.341190 -0.425250 4.727183 203 203 193
-1.337734 -0.433641 4.724839 204 204 194
-1.627305 -0.633242 6.352377 210 210 200
-1.671520 -0.676335 6.620888 214 214 204
-2.103436 -0.981661 9.060540 215 215 205
-1.323913 -0.467204 4.715461 212 212 202
-0.708192 -0.457767 1.912590 193 191 178
-0.706404 -0.462110 1.911377 188 186 173
-1.483885 -1.884321 7.686144 187 185 172
-0.913054 -0.863075 3.482656 187 185 172
-1.965344 -2.821667 11.351971 185 183 170
-1.957555 -2.840583 11.346686 183 181 168
-1.009196 -1.081001 4.263423 175 173 160
-1.005907 -1.088987 4.261191 175 173 160
-1.934187 -2.897329 11.330832 169 167 154
-1.686047 -2.446652 9.492891 167 165 152
-1.679425 -2.462734 9.488398 160 158 145
-1.468787 -2.071450 7.914413 148 146 133
-1.564673 -2.290000 8.695005 77 75 62
-0.582146 -0.312460 1.111535 35 33 20
-1.250906 -1.697759 6.335514 31 29 17
-1.312956 -1.848010 6.854637 58 54 42
-0.609995 -0.395298 1.368942 218 212 196
-0.641376 -0.469559 1.628745 216 213 198
-0.639754 -0.473497 1.627645 173 174 158
-1.938224 -3.338924 12.049108 159 162 145
-1.153880 -1.632446 5.792660 155 156 138
-0.444868 -7.416806 11.751446 170 161 60
-0.436079 -7.438150 11.745483 144 135 34
-0.427290 -7.459494 11.739520 163 154 53
-0.350718 -2.078193 2.862616 162 153 52
-0.364749 -3.548782 5.257257 135 126 25
-0.360460 -3.559197 5.254348 204 195 94
-0.350844 -2.980684 4.293774 166 157 56
-0.347222 -2.989480 4.291317 124 115 14
-0.352586 -4.330648 6.441567 156 147 46
-0.335818 -2.264841 3.091019 166 157 56
-0.336356 -3.015867 4.283945 122 113 12
-0.332734 -3.024663 4.281487 174 165 64
-0.327453 -2.285156 3.085343 137 128 27
-0.326150 -3.642516 5.231069 157 148 47
-0.321860 -3.803401 5.466671 178 169 68
-0.314038 -6.831717 10.231609 124 115 14
-0.306249 -6.850632 10.226324 215 206 105
-0.308995 -3.684175 5.219430 189 180 79
-0.307379 -3.086233 4.264285 150 141 40
-0.268472 -6.791905 9.962181 135 126 25
-0.262184 -6.656708 9.719403 159 150 49
-0.254729 -6.674813 9.714344 145 135 37
-0.247273 -6.692919 9.709286 122 112 17
-0.260004 -5.006875 7.094289 169 159 64
-0.234363 -6.573803 9.462015 132 122 25
-0.218400 -7.214433 10.405233 144 134 37
-0.215114 -6.921479 9.925980 185 175 78
-0.207492 -6.939990 9.920808 163 153 58
-0.202538 -6.801554 9.678935 152 142 45
-0.172400 -8.078471 11.566585 159 149 52
-0.157990 -7.962998 11.318296 166 156 59
-0.149368 -7.983937 11.312446 164 154 57
-0.187153 -5.635186 7.760398 141 131 34
-0.123500 -8.046755 11.294895 178 168 71
-0.122881 -7.747324 10.817451 127 117 20
-0.114592 -7.767454 10.811827 158 148 51
-0.106303 -7.787584 10.806203 157 147 50
-0.985688 0.079039 2.344071 159 159 151
-2.055800 -0.159441 7.609449 155 155 147
-0.756746 0.120369 1.233090 154 154 144
-1.372461 -0.026984 4.278873 154 154 144
-1.984508 -0.183242 7.322167 140 140 128
-1.254701 -0.014305 3.721151 130 130 118
-1.919006 -0.192984 7.038814 109 110 94
-2.357613 -0.322457 9.247696 102 103 89
-1.688398 -0.155702 5.926702 87 88 74
-1.353729 -0.072472 4.266164 82 82 70
-1.350607 -0.080053 4.264046 138 138 130
-1.347485 -0.087635 4.261928 226 225 220
-1.344363 -0.095216 4.259809 223 222 218
-1.341241 -0.102798 4.257691 226 225 221
-2.949604 -0.676746 12.516295 232 231 226
-2.941481 -0.696470 12.510784 228 227 222
-2.075904 -0.409267 8.100914 233 232 227
-2.070449 -0.422515 8.097213 234 234 226
-2.064993 -0.435764 8.093512 237 234 225
-1.942980 -0.582737 7.771817 236 233 224
-1.937691 -0.595581 7.768228 238 235 226
-1.983160 -0.634489 8.037990 202 199 190
-1.775342 -0.541861 6.941341 134 131 122
-1.820977 -0.580364 7.211216 208 205 196
-1.765764 -0.565119 6.934843 210 210 200
-2.161699 -0.798216 9.114774 205 205 195
-2.205501 -0.841172 9.383405 206 206 196
-1.552369 -0.486035 5.834411 207 207 197
-2.341694 -0.958410 10.192546 205 205 195
-1.939515 -0.740476 8.008378 202 202 192
-0.801147 -0.070454 1.741040 205 205 195
-1.977694 -0.797085 8.273194 204 204 194
-1.972072 -0.810738 8.269380 204 204 194
-1.966450 -0.824391 8.265565 208 208 198
-1.815057 -0.744064 7.446112 209 209 199
-1.422545 -0.502653 5.268504 208 208 198
-1.129215 -0.319037 3.636013 212 212 202
-2.088232 -0.976626 9.064928 212 212 202
-2.082109 -0.991494 9.060775 209 209 199
-1.670936 -2.139315 9.020718 191 189 176
-0.703751 -0.456296 1.913872 192 190 177
-0.808228 -0.650553 2.701495 186 184 171
-0.911706 -0.847238 3.488439 191 189 176
-0.908917 -0.854010 3.486547 185 183 170
-0.906129 -0.860782 3.484655 183 181 168
-1.946000 -2.815261 11.357554 178 176 163
-2.102531 -3.181758 12.658319 183 181 168
-2.162419 -3.334973 13.176776 177 175 162
-2.187552 -3.423265 13.432741 171 169 156
-1.974898 -3.043733 11.854986 164 162 149
-1.460447 -2.053174 7.922258 153 151 138
-1.454825 -2.066827 7.918443 136 134 121
-0.814188 -0.785404 2.944451 20 18 5
-1.044519 -1.271333 4.773112 34 32 19
-1.239428 -1.693958 6.338827 37 35 23
-1.300649 -1.843934 6.858189 72 69 54
-0.702192 -0.609406 2.151727 200 197 180
-1.796907 -3.027996 11.017487 165 166 150
-1.725108 -2.903706 10.490948 159 162 145
-0.887856 -1.054479 3.711170 153 154 136
-0.424959 -7.554243 11.997960 149 140 39
-0.414251 -7.430921 11.751783 183 174 73
-0.405462 -7.452265 11.745820 172 163 62
-0.352715 -2.951318 4.303743 180 171 70
-0.354098 -3.545255 5.260331 162 153 52
-0.338963 -2.088770 2.860937 153 144 43
-0.341849 -2.977706 4.296370 126 117 16
-0.341232 -3.576499 5.251602 146 137 36
-0.339866 -4.326436 6.445238 137 128 27
-0.330983 -3.004093 4.288998 153 144 43
-0.329873 -4.500027 6.677371 179 170 69
-0.323739 -3.021684 4.284083 157 148 47
-0.319295 -4.525714 6.670194 144 135 34
-0.315499 -3.638989 5.234143 182 173 72
-0.308302 -4.701734 6.901648 115 106 5
-0.294695 -6.825311 10.237192 167 158 57
-0.298139 -4.577088 6.655841 149 140 39
-0.279116 -6.863142 10.226622 143 134 33
-0.271327 -6.882057 10.221338 153 144 43
-0.263538 -6.900973 10.216053 148 139 38
-0.249542 -6.785637 9.967645 171 162 61
-0.241919 -6.804147 9.962473 156 146 48
-0.234297 -6.822658 9.957301 146 136 39
-0.228757 -6.686788 9.714630 178 168 73
-0.246041 -5.002252 7.098319 131 120 28
-0.213845 -6.722999 9.704513 126 116 21
-0.198642 -7.207890 10.410936 149 139 42
-0.196185 -6.915211 9.931443 133 123 26
-0.191478 -6.777316 9.689337 171 161 66
-0.170068 -7.127956 10.152636 155 145 48
-0.162279 -7.146872 10.147352 154 144 47
-0.136576 -7.955906 11.324476 178 168 71
-0.195441 -5.125130 7.063988 118 108 11
-0.123247 -7.838952 11.076520 153 143 46
-0.106335 -7.880020 11.065046 140 130 33
-0.097879 -7.900555 11.059309 179 169 72
-0.089424 -7.921089 11.053572 178 168 71
-0.085717 -7.780766 10.812144 146 136 39
-0.980832 0.080647 2.345472 156 156 146
-1.707015 -0.082241 5.949234 157 157 147
-1.256142 0.008304 3.728826 152 152 140
-1.253353 0.001532 3.726934 137 137 125
-1.306075 -0.018619 4.002017 115 115 105
-1.303120 -0.025795 4.000012 109 109 99
-0.912136 0.062005 2.059551 77 77 65
-1.349098 -0.062323 4.270520 106 106 96
-1.345976 -0.069905 4.268402 191 191 181
-1.342854 -0.077486 4.266283 231 231 223
-1.611451 -0.166130 5.645083 229 229 221
-1.932558 -0.275438 7.298822 228 228 220
-0.897828 0.027260 2.049843 229 228 223
-2.929432 -0.670066 12.522117 237 236 232
-2.921310 -0.689791 12.516606 235 234 230
-1.211524 -0.100045 3.698554 230 229 224
-1.208736 -0.106817 3.696662 229 229 221
-2.579880 -0.629832 10.849079 233 230 223
-1.874047 -0.565709 7.498437 237 234 225
-1.919268 -0.604075 7.768431 234 231 222
-1.913979 -0.616919 7.764843 161 158 149
-1.808670 -0.576288 7.214768 126 123 114
-1.753871 -0.561181 6.938276 226 226 216
-1.749083 -0.572810 6.935027 213 213 203
-2.816599 -1.240434 12.924189 207 207 197
-0.797120 -0.069120 1.742203 212 212 202
-2.742555 -1.272063 12.634639 212 212 202
-1.958110 -0.806114 8.273410 205 205 195
-2.725976 -1.312322 12.623391 207 207 197
-2.621334 -1.270073 12.073769 208 208 198
-1.509156 -0.562725 5.814992 207 207 197
-0.691703 -0.028752 1.192055 210 210 200
-2.025351 -0.939187 8.797657 208 208 198
-1.211732 -0.395904 4.177321 207 207 197
-1.262106 -1.459027 6.126002 195 193 180
-1.957813 -2.733194 11.384276 188 186 173
-0.591208 -0.272795 1.123872 188 186 173
-0.867317 -0.787740 3.225707 183 181 168
-0.864696 -0.794107 3.223928 186 184 171
-1.995339 -2.938429 11.888362 181 179 166
-2.081118 -3.174667 12.664499 173 171 158
-2.072495 -3.195606 12.658649 172 170 157
-1.120983 -1.357187 5.312315 159 157 144
-1.686663 -2.502570 9.764431 157 155 142
-1.679874 -2.519056 9.759825 121 119 106
-1.507212 -2.197443 8.446115 47 45 32
-1.039146 -1.259559 4.778165 34 32 19
-1.288342 -1.839859 6.861741 110 107 92
-1.053210 -1.373586 5.027020 199 196 177
-1.529538 -2.439589 8.939888 185 184 166
-1.650613 -2.738294 9.979286 158 159 143
-1.738681 -2.968975 10.756976 158 161 144
-1.668209 -2.843745 10.230537 156 157 139
-0.402717 -7.546878 12.004380 161 152 51
-0.392424 -7.423693 11.758083 149 140 39
-0.383635 -7.445037 11.752120 145 136 35
-0.347736 -3.531313 5.266315 156 147 46
-0.348471 -4.418616 6.702692 146 137 36
-0.343182 -4.431460 6.699103 175 166 65
-0.340917 -5.326049 8.133444 165 156 55
-0.335978 -5.930771 9.087344 151 142 41
-0.329022 -5.947662 9.082625 136 127 26
-0.322027 -4.482834 6.684750 176 167 66
-0.316738 -4.495677 6.681162 117 108 7
-0.313426 -3.614632 5.243037 153 144 43
