ply
format ascii 1.0
element vertex 1218
property float x
property float y
property float z
property uchar red
property uchar green
property uchar blue
end_header
1.872866 -2.257593 4.966099 228 223 219
1.879688 -2.250696 4.965454 231 230 225
1.952514 -2.321660 5.142196 110 113 106
2.830874 -3.313313 7.446309 26 35 32
0.972926 -1.143173 2.480396 29 35 33
1.712932 -1.985521 4.430335 29 33 32
1.786234 -2.056003 4.607031 22 26 25
1.387988 -1.591089 3.542918 20 24 23
3.558348 -4.023749 9.213801 30 34 33
0.786652 -0.897727 1.947123 27 31 30
3.048879 -3.382103 7.792946 20 24 23
1.481202 -1.641444 3.717731 25 29 28
1.571559 -2.262070 4.631592 216 215 210
0.746576 -1.077623 2.136566 218 217 212
3.279595 -4.572262 9.616152 218 217 212
0.761646 -1.062390 2.135140 217 216 211
2.670517 -3.602078 7.652072 218 217 212
2.988523 -4.001471 8.540941 221 218 213
1.456086 -1.946286 4.091143 222 221 216
1.405113 -1.853641 3.912174 220 221 215
1.472983 -1.929206 4.089544 154 157 150
1.353189 -1.761959 3.733295 56 61 54
1.043591 -1.354066 2.843630 18 23 16
1.453662 -1.804566 3.907580 26 36 25
1.200588 -1.483706 3.196359 34 42 29
2.696696 -3.287275 7.282011 90 93 84
2.706613 -3.277251 7.281073 172 169 164
2.781861 -3.345357 7.457745 221 213 210
1.874048 -2.244639 4.970555 245 242 237
1.946677 -2.315392 5.147475 147 148 142
2.019783 -2.385663 5.324350 22 28 24
2.027081 -2.378285 5.323659 13 24 20
1.967858 -2.293981 5.145471 26 32 30
1.780988 -2.050369 4.611777 26 30 29
3.535450 -4.025291 9.224360 21 25 24
2.333466 -2.645256 6.029837 27 31 30
0.784357 -0.895262 1.949199 34 38 37
0.787133 -0.892456 1.948936 31 35 34
2.971904 -3.297422 7.623555 29 33 32
1.476939 -1.636867 3.721586 33 37 36
1.550758 -1.706416 3.898393 36 40 39
0.593596 -0.655584 1.415873 44 48 47
0.442693 -0.660810 1.247580 215 214 209
1.501258 -2.178436 4.458542 216 215 210
2.214716 -3.182354 6.598449 217 216 211
0.744084 -1.074947 2.138819 217 216 211
0.753127 -1.065807 2.137964 217 216 211
0.455461 -0.647903 1.246372 218 217 212
2.661925 -3.592851 7.659842 217 216 211
3.162926 -4.236493 9.084048 218 217 212
2.436454 -3.245730 6.945371 221 220 215
3.372926 -4.455494 9.616031 223 222 217
2.517375 -3.307690 7.121666 223 224 218
2.838444 -3.701936 8.011043 191 192 187
2.974345 -3.852081 8.366086 85 87 82
1.040312 -1.350545 2.846595 30 32 27
1.962660 -2.430826 5.334641 27 37 28
1.841118 -2.266168 4.978238 27 37 28
2.365207 -2.886471 6.400259 66 71 64
2.828207 -3.424765 7.644109 151 152 146
1.796451 -2.167560 4.798514 209 206 201
1.803035 -2.160904 4.797891 248 245 240
1.875230 -2.231686 4.975011 182 181 176
2.013749 -2.379183 5.329807 40 43 36
2.814084 -3.295282 7.461494 14 19 13
2.094670 -2.441144 5.506101 26 28 23
3.646153 -4.179302 9.590179 34 36 33
1.245780 -1.430368 3.195057 31 33 30
1.250222 -1.425877 3.194636 35 37 34
1.254664 -1.421387 3.194216 41 43 40
0.784838 -0.889992 1.951012 46 48 45
3.031302 -3.363227 7.808844 52 54 51
3.041933 -3.352481 7.807838 55 57 54
1.546299 -1.701627 3.902427 57 59 56
1.620398 -1.770484 4.079367 62 64 61
0.591891 -0.653753 1.417415 67 69 66
1.600061 -2.354731 4.821504 216 215 210
0.441185 -0.659190 1.248944 215 214 209
3.134517 -4.530715 9.463189 216 215 210
0.797328 -1.159281 2.319910 217 216 211
0.643923 -0.884302 1.782093 217 216 211
2.847114 -3.817790 8.201609 218 217 212
3.287791 -4.375778 9.448687 219 218 213
1.021168 -1.363060 2.851062 222 221 216
2.829459 -3.692287 8.019169 214 215 210
3.089605 -4.002717 8.730997 123 125 120
1.412377 -1.827704 3.918709 42 44 39
1.835478 -2.260110 4.983340 25 35 26
1.971223 -2.409591 5.338717 54 59 52
1.266827 -1.544785 3.380150 134 135 129
3.024821 -3.638155 8.184795 199 198 193
1.862767 -2.232525 4.980757 248 245 240
1.869590 -2.225629 4.980112 221 220 215
2.007715 -2.372703 5.335264 78 79 73
2.871579 -3.363011 7.646963 26 29 22
2.948099 -3.429010 7.823833 32 34 29
3.025095 -3.494528 8.000659 41 43 38
3.035964 -3.483542 7.999630 49 51 46
3.046833 -3.472555 7.998602 54 56 51
1.246549 -1.421933 3.197958 57 59 54
2.597346 -2.923472 6.752358 61 63 58
3.079439 -3.439595 7.995517 62 64 59
3.090308 -3.428609 7.994488 62 64 59
1.541839 -1.696838 3.906460 65 67 62
1.896357 -2.055221 4.793469 69 71 66
3.085639 -4.558109 9.476365 216 215 210
1.594618 -2.348886 4.826427 215 214 209
1.078516 -1.584133 3.216831 215 214 209
2.249244 -3.259490 6.791456 216 215 210
1.907133 -2.747677 5.718207 217 216 211
2.571993 -3.647935 7.682267 217 216 211
0.631672 -0.892311 1.784951 217 216 211
1.178714 -1.625788 3.391620 217 216 211
2.401964 -3.248052 6.961276 217 216 211
2.959797 -3.970621 8.566923 218 217 212
3.093720 -4.121123 8.922791 218 217 212
3.017710 -3.912079 8.561443 168 170 165
3.216375 -4.140077 9.095456 63 65 60
1.886804 -2.339408 5.167320 24 36 26
1.829838 -2.254053 4.988441 23 33 24
1.965190 -2.403112 5.344174 43 48 41
2.036991 -2.473471 5.521650 114 115 109
3.080380 -3.705791 8.371244 188 187 182
3.221682 -3.848834 8.726414 235 232 227
0.820481 -0.987333 2.135626 247 246 241
1.936227 -2.289449 5.162644 118 119 113
2.008980 -2.358846 5.340030 37 40 33
2.873380 -3.343279 7.653751 47 49 44
3.016110 -3.484879 8.008785 53 55 50
3.624641 -4.156199 9.609636 59 61 56
2.254133 -2.539851 5.869644 68 70 65
2.194787 -2.456902 5.690989 64 66 61
1.053412 -1.180692 2.666397 60 62 57
1.057141 -1.176923 2.666044 56 58 53
1.537380 -1.692049 3.910493 56 58 53
1.542774 -1.686596 3.909983 54 56 51
1.959463 -2.123022 4.976176 51 53 48
2.271432 -3.363730 6.979947 215 214 209
2.338514 -3.438449 7.158029 215 214 209
2.753349 -4.016817 8.409782 215 214 209
2.309194 -3.325558 6.976374 217 216 211
0.857286 -1.229991 2.503020 217 216 211
0.860776 -1.226463 2.502690 217 216 211
0.629574 -0.890058 1.786849 217 216 211
1.174845 -1.621632 3.395120 217 216 211
1.728685 -2.344546 5.002579 218 217 212
2.961804 -3.948629 8.574488 220 219 214
3.340657 -4.420840 9.645217 219 218 213
3.206209 -4.129160 9.104650 99 101 96
1.888028 -2.326003 5.171932 25 35 26
1.959156 -2.396632 5.349631 36 41 34
2.030760 -2.466780 5.527285 95 96 90
2.167385 -2.613731 5.883216 175 174 169
3.406256 -4.069472 9.270151 226 223 218
0.817989 -0.984657 2.137880 249 248 243
1.865132 -2.206618 4.989669 151 152 146
2.002946 -2.352366 5.345487 47 50 43
1.944511 -2.268907 5.166587 53 55 50
1.027962 -1.199993 2.671301 55 57 52
1.031690 -1.196225 2.670948 55 57 52
1.035418 -1.192456 2.670595 52 54 49
1.039146 -1.188687 2.670242 48 50 45
1.042874 -1.184919 2.669890 55 57 52
2.255522 -2.524638 5.874877 51 53 48
0.511129 -0.582201 1.244769 43 45 40
1.459888 -1.618555 3.737008 38 40 35
1.532920 -1.687259 3.914527 39 41 36
1.538315 -1.681807 3.914016 37 39 34
1.612061 -1.749789 4.091468 32 34 29
1.244219 -1.827677 3.760866 215 214 209
1.429008 -2.067240 4.297147 216 215 210
0.857891 -1.223365 2.505300 217 216 211
1.807154 -2.537704 5.368899 217 216 211
1.723044 -2.338488 5.007680 218 217 212
2.963811 -3.926637 8.582052 217 216 211
1.953122 -2.390152 5.355088 29 34 27
2.024530 -2.460089 5.532920 77 78 72
2.160761 -2.606617 5.889207 157 156 151
2.297944 -2.752184 6.245404 215 212 207
2.306432 -2.743603 6.244601 246 245 240
0.753450 -0.902582 1.961416 172 173 167
1.996913 -2.345887 5.350945 51 54 47
1.414375 -1.655675 3.744766 43 45 40
0.827554 -0.969794 2.138993 44 46 41
1.235532 -1.410102 3.207922 35 37 32
1.239974 -1.405611 3.207502 38 40 35
1.244416 -1.401121 3.207082 39 41 36
2.391317 -2.657797 6.236570 31 33 28
0.511445 -0.578738 1.245960 29 31 26
1.528461 -1.682470 3.918560 32 34 29
0.515093 -0.575050 1.245615 32 34 29
0.516917 -0.573207 1.245442 27 29 24
1.177552 -1.744471 3.585878 214 213 208
1.182471 -1.739500 3.585413 215 214 209
2.919108 -4.235280 8.963532 216 215 210
1.134345 -1.646439 3.405218 216 215 210
0.851516 -1.223794 2.508240 216 215 210
0.855006 -1.220266 2.507909 217 216 211
1.860035 -2.613379 5.553530 218 217 212
1.221816 -1.699727 3.581690 216 215 210
1.226735 -1.694756 3.581224 217 216 211
1.476988 -2.008622 4.296538 218 217 212
1.488728 -1.996754 4.295427 217 216 211
2.954235 -3.916354 8.590713 218 217 212
2.843706 -3.744665 8.231675 220 221 215
1.456310 -1.887816 4.113746 172 174 169
2.010763 -2.461016 5.539268 21 26 19
2.018300 -2.453398 5.538555 65 66 60
2.154137 -2.599504 5.895198 144 143 138
2.290926 -2.744648 6.251751 208 205 200
2.299415 -2.736067 6.250948 233 232 227
2.372768 -2.803627 6.428756 186 187 181
1.990879 -2.339407 5.356402 55 58 51
0.887388 -1.045824 2.320097 27 29 24
1.743162 -2.022978 4.640849 32 34 29
2.012774 -2.317274 5.354330 38 40 35
1.099274 -1.256764 2.854293 24 26 21
1.103241 -1.252755 2.853918 26 28 23
0.506289 -0.580806 1.247669 35 37 32
1.982260 -2.206411 5.172469 29 31 26
0.509937 -0.577118 1.247324 19 21 16
1.119105 -1.236718 2.852417 24 26 21
1.123071 -1.232709 2.852041 26 28 23
2.690089 -2.907989 6.952975 21 23 18
2.885021 -4.248953 8.974831 214 213 208
2.954369 -4.320151 9.153177 215 214 209
3.024193 -4.390868 9.331477 216 215 210
1.303772 -1.891003 3.947043 216 215 210
1.846268 -2.614307 5.559878 217 216 211
1.912521 -2.688632 5.738516 217 216 211
1.743430 -2.435663 5.199794 218 217 212
1.103806 -1.527944 3.226334 217 216 211
1.532042 -2.084151 4.480166 218 217 212
2.631160 -3.516479 7.704500 218 217 212
1.368503 -1.825570 3.940918 219 218 213
2.956242 -3.894362 8.598278 219 220 214
3.090020 -4.041730 8.955434 221 222 217
3.237285 -4.175464 9.311315 205 207 202
1.427840 -1.765589 3.935304 25 35 26
1.877577 -2.300061 5.187101 21 26 19
1.884638 -2.292924 5.186433 59 60 54
2.147513 -2.592390 5.901189 129 128 123
2.283909 -2.737111 6.258098 195 192 187
2.292397 -2.728531 6.257295 219 218 213
2.365553 -2.795879 6.435280 205 206 200
2.439186 -2.862746 6.613221 59 62 55
0.495661 -0.588405 1.249896 15 17 12
2.072360 -2.385761 5.538486 34 36 31
2.672617 -3.050677 7.145856 28 30 25
1.823050 -2.072583 4.822446 20 22 17
0.834626 -0.952255 2.142360 15 17 12
1.103928 -1.245225 2.856508 24 26 21
1.119792 -1.229188 2.855007 27 29 24
0.920473 -1.006775 2.319144 24 26 21
1.055712 -1.568904 3.233858 214 213 208
3.001295 -4.392410 9.342036 215 214 209
3.071161 -4.462675 9.520492 216 215 210
1.299312 -1.886214 3.951076 216 215 210
1.246900 -1.798306 3.770968 217 216 211
1.600323 -2.286378 4.847928 216 215 210
1.606907 -2.279722 4.847305 217 216 211
1.613492 -2.273066 4.846682 217 216 211
1.561317 -2.184918 4.666552 218 217 212
1.626660 -2.259755 4.845436 216 215 210
1.100134 -1.524001 3.229655 217 216 211
0.929886 -1.273431 2.690564 218 217 212
1.593049 -2.152843 4.663550 219 218 213
2.622568 -3.507252 7.712271 220 219 214
3.323654 -4.348330 9.681668 216 217 212
3.288299 -4.243181 9.499947 215 217 212
1.543595 -1.921057 4.298096 24 36 26
1.871740 -2.293792 5.192380 27 32 25
1.942320 -2.363335 5.370769 50 51 45
1.949618 -2.355958 5.370078 110 109 104
2.212896 -2.653376 6.085434 183 180 175
2.349613 -2.796953 6.442631 218 217 212
2.293868 -2.712414 6.262839 206 207 201
2.431775 -2.854787 6.619924 83 86 79
2.635580 -3.071435 7.155840 19 21 16
2.580074 -2.986656 6.976025 9 11 6
2.785783 -3.201379 7.511761 21 23 18
2.795938 -3.191114 7.510800 24 26 21
3.201487 -3.626494 8.582828 21 23 18
1.246726 -1.375818 3.215785 33 35 30
1.251168 -1.371328 3.215365 35 37 32
1.052915 -1.149068 2.678923 36 38 33
1.329695 -1.986682 4.137039 215 214 209
0.938724 -1.398549 2.877450 215 214 209
0.942690 -1.394540 2.877074 215 214 209
0.721136 -1.056586 2.157134 216 215 210
2.705092 -3.827355 8.267098 217 216 211
2.016314 -2.837871 6.109557 217 216 211
1.556071 -2.179284 4.671297 217 216 211
2.326814 -3.226392 7.006308 216 215 210
2.336255 -3.216849 7.005415 217 216 211
1.587803 -2.147208 4.668295 218 217 212
3.312897 -4.336779 9.691396 222 219 214
2.054140 -2.659157 5.920753 221 222 216
1.928988 -2.364233 5.376916 27 32 26
1.999608 -2.433324 5.555460 40 43 36
2.007145 -2.425706 5.554747 96 97 91
0.866314 -1.050311 2.328623 168 168 160
2.342398 -2.789205 6.449156 215 215 207
2.286851 -2.704877 6.269186 211 211 203
2.359851 -2.771563 6.447505 112 112 104
0.814572 -0.962136 2.148293 28 30 25
1.012551 -1.183444 2.685238 25 27 22
3.191912 -3.616210 8.591488 35 37 32
2.904971 -3.203875 7.692508 43 45 40
0.982464 -1.073379 2.502859 47 49 44
2.730609 -4.062554 8.642890 214 213 208
2.403427 -3.552880 7.561536 215 214 209
0.939412 -1.391019 2.880040 216 215 210
1.755091 -2.527438 5.398256 216 215 210
1.416483 -2.029312 4.317983 215 214 209
1.422354 -2.023379 4.317427 215 214 209
2.590763 -3.643647 7.914581 216 215 210
0.616985 -0.876538 1.798236 217 216 211
1.486927 -1.958105 4.311318 222 219 214
2.328851 -3.471106 7.389846 214 213 208
2.451296 -3.626647 7.749350 215 214 209
2.461689 -3.616142 7.748366 216 215 210
1.417501 -2.018167 4.321817 216 215 210
2.581975 -3.634208 7.922530 217 216 211
1.720082 -2.410590 5.220910 217 216 211
1.843955 -2.564688 5.580279 217 216 211
2.257144 -2.984961 6.654452 220 217 212
2.456718 -3.202194 7.192203 221 220 215
0.521232 -0.689640 1.437905 225 224 219
2.488141 -3.710738 7.938525 214 213 208
2.498772 -3.699992 7.937519 215 214 209
2.509402 -3.689246 7.936513 216 215 210
1.120491 -1.612046 3.425329 215 214 209
1.412648 -2.012955 4.326206 216 215 210
1.533985 -2.168796 4.686133 216 215 210
1.540331 -2.162381 4.685533 217 216 211
0.498907 -0.708653 1.441398 218 217 212
2.249733 -2.977002 6.661155 220 217 212
2.448717 -3.193601 7.199439 221 220 215
0.810378 -1.223271 2.528488 214 213 208
2.489983 -3.690554 7.945468 215 214 209
2.612831 -3.844047 8.305571 216 215 210
1.458985 -2.094834 4.511615 215 214 209
1.465093 -2.088660 4.511037 216 215 210
1.528738 -2.163161 4.690879 216 215 210
1.535085 -2.156746 4.690278 217 216 211
0.729253 -1.027602 2.164437 218 217 212
1.625781 -2.203903 4.867560 218 217 212
2.011619 -2.646901 5.946233 220 217 212
1.805335 -2.703186 5.785093 214 213 208
1.145025 -1.709539 3.615297 216 215 210
1.795118 -2.575087 5.600037 216 215 210
1.802655 -2.567469 5.599324 217 216 211
1.523492 -2.157527 4.695624 217 216 211
1.529838 -2.151112 4.695023 218 217 212
1.325826 -1.039037 3.068269 223 220 211
1.405634 -1.092688 3.248334 222 219 210
2.411092 -1.822541 5.592210 222 219 210
2.342072 -1.757984 5.411124 221 218 209
3.933482 -2.835800 9.012873 220 217 208
4.257476 -3.045588 9.732682 219 216 207
2.314939 -1.651087 5.226076 219 216 207
1.073145 -0.757161 2.341712 218 215 206
0.164197 -1.268622 1.866565 134 128 32
0.554103 -4.088428 6.336287 136 130 34
0.494583 -3.479023 5.403041 136 130 34
0.501643 -3.471886 5.402373 136 130 34
0.508704 -3.464749 5.401705 136 130 34
0.463059 -3.109146 4.842697 136 130 34
0.878954 -5.768767 9.122184 135 129 33
0.529885 -3.443338 5.399701 133 127 31
0.701134 -4.341545 6.885702 132 126 30
0.257433 -1.576117 2.421070 130 124 28
0.855256 -4.989236 7.997773 128 122 26
2.825729 -2.193901 6.684677 223 220 213
1.401962 -1.088744 3.251655 222 219 210
3.175988 -2.375500 7.402639 220 217 208
4.220698 -3.060341 9.744873 221 218 209
4.078611 -2.936141 9.382766 220 217 208
0.668513 -0.491007 1.443297 219 216 207
0.670575 -0.488923 1.443102 218 215 206
0.676761 -0.482670 1.442516 218 215 206
0.678823 -0.480585 1.442321 218 215 206
0.664676 -5.030468 7.834828 134 128 32
0.905186 -6.389397 10.067290 136 130 34
0.488352 -3.206144 5.032487 137 131 35
0.947080 -6.080040 9.687456 135 129 33
0.519845 -3.307814 5.217442 135 129 33
0.600914 -3.759881 5.961511 132 126 30
0.254745 -1.573230 2.423502 131 125 29
0.475901 -2.818218 4.469861 132 126 30
1.598139 -1.283294 3.799872 223 220 211
1.603295 -1.278082 3.799384 223 220 211
2.510417 -1.963168 5.968773 223 220 213
1.168931 -0.916134 2.712873 222 219 212
4.043418 -3.083616 9.582422 222 219 210
1.634232 -1.246809 3.796457 222 219 210
3.320114 -2.479727 7.771511 221 218 209
2.413704 -1.793922 5.602054 221 218 209
3.187623 -2.346647 7.408177 220 217 208
4.132828 -2.993237 9.573963 220 217 208
4.145601 -2.980325 9.572754 219 216 207
1.597892 -1.150040 3.611960 217 214 205
2.630604 -1.841677 5.957401 218 215 206
2.717159 -1.887687 6.137147 217 214 205
0.677118 -0.478755 1.443863 217 214 205
0.656281 -5.021452 7.842420 136 130 34
0.151392 -1.139724 1.683081 136 130 34
0.449987 -3.233577 5.040525 136 130 34
0.757151 -5.318769 8.397159 136 130 34
0.158292 -1.132749 1.682428 136 130 34
0.160592 -1.130424 1.682210 136 130 34
0.162892 -1.128099 1.681993 136 130 34
0.659418 -4.352812 6.901652 136 130 34
0.668383 -4.343750 6.900804 134 128 32
0.677347 -4.334688 6.899956 134 128 32
0.392472 -2.493154 3.917402 131 125 29
0.214374 -1.342246 2.053310 132 126 30
0.258561 -1.563768 2.425318 135 129 33
0.770245 -4.506971 7.267355 133 127 31
2.184462 -1.746474 5.252602 224 221 214
1.599032 -1.273504 3.803240 224 221 214
1.604189 -1.268292 3.802752 223 220 213
2.960458 -2.292998 7.060121 222 219 212
4.095099 -3.142454 9.774178 222 219 210
4.032859 -3.072276 9.591973 223 220 211
1.629970 -1.242231 3.800312 223 220 211
3.679767 -2.763729 8.684910 220 217 208
3.311522 -2.470500 7.779281 221 218 209
3.255866 -2.393666 7.596453 221 218 209
2.575905 -1.883159 5.967941 220 217 208
0.891732 -0.657540 1.989220 220 217 208
1.125975 -0.820038 2.531339 218 215 206
1.516433 -1.090813 3.434866 217 214 205
3.384271 -2.396962 7.772398 218 215 206
3.394664 -2.386457 7.771415 219 216 207
3.561271 -2.484229 8.131839 218 215 206
3.728831 -2.581039 8.492174 217 214 205
2.954340 -2.032995 6.684512 217 214 205
0.766891 -5.820926 9.156529 136 130 34
0.794500 -5.925701 9.342170 135 129 33
0.838611 -6.146478 9.714503 135 129 33
0.460808 -3.343975 5.232163 134 128 32
0.467630 -3.337078 5.231518 134 128 32
0.474453 -3.330182 5.230872 134 128 32
0.158691 -1.128382 1.683930 134 128 32
0.505314 -3.431670 5.416206 135 129 33
0.686916 -4.574933 7.281559 134 128 32
0.508565 -3.295700 5.227645 134 128 32
0.606228 -3.860395 6.159672 130 124 28
0.212079 -1.339781 2.055386 132 126 30
0.255872 -1.560880 2.427750 133 127 31
0.762440 -4.498589 7.274413 133 127 31
1.594770 -1.268927 3.807095 224 221 214
1.599926 -1.263714 3.806607 223 220 213
2.654339 -2.055433 6.342392 222 219 212
0.567962 -0.449304 1.268699 222 219 210
0.644841 -0.504275 1.449678 223 220 211
1.625707 -1.237653 3.804168 223 220 211
1.102149 -0.838107 2.535930 221 218 209
2.722247 -1.986788 6.335966 221 218 209
2.654014 -1.923077 6.154169 221 218 209
0.892213 -0.652269 1.991033 220 217 208
3.365287 -2.398241 7.781152 218 215 206
3.375679 -2.387735 7.780169 219 216 207
0.903317 -0.641045 1.989983 217 214 205
3.025315 -2.078482 6.872051 217 214 205
0.231380 -1.844579 2.809070 136 130 34
0.388641 -3.008346 4.678320 135 129 33
0.800122 -6.031508 9.538124 134 128 32
0.828248 -6.135350 9.723876 133 127 31
0.274259 -1.933509 2.993426 133 127 31
0.499477 -3.425401 5.421485 133 127 31
0.523794 -3.533093 5.607597 131 125 29
0.146194 -1.004777 1.498240 131 125 29
0.768926 -5.004856 8.033772 132 126 30
0.527718 -3.396853 5.418813 130 124 28
0.773125 -4.736064 7.656549 129 123 27
0.253183 -1.557993 2.430181 131 125 29
0.524697 -3.135361 5.042273 132 126 30
1.885178 -1.495574 4.536721 224 221 214
1.669569 -1.316702 3.991883 223 220 213
1.749107 -1.368575 4.172770 222 219 212
0.643136 -0.502444 1.451220 222 219 210
1.621444 -1.233076 3.808023 224 221 212
1.099263 -0.835008 2.538540 220 217 208
1.102753 -0.831480 2.538210 220 217 208
0.577398 -0.436622 1.269027 221 218 209
1.570940 -1.151855 3.624389 222 219 210
2.800242 -2.025590 6.522682 222 219 210
1.580776 -1.141912 3.623458 221 218 209
3.510695 -2.497890 8.151178 219 216 207
0.901022 -0.638580 1.992058 218 215 206
1.371511 -0.956627 3.078019 217 214 205
3.252278 -2.230017 7.421977 217 214 205
0.228298 -1.841269 2.811858 137 131 35
0.353278 -2.769839 4.308611 136 130 34
0.435883 -3.345653 5.243657 134 128 32
0.489603 -3.686940 5.804291 132 126 30
0.118071 -0.897788 1.313709 132 126 30
0.119895 -0.895944 1.313536 132 126 30
0.121719 -0.894101 1.313363 131 125 29
0.493640 -3.419133 5.426764 132 126 30
0.500700 -3.411996 5.426096 130 124 28
0.213684 -1.460453 2.247524 131 125 29
0.777871 -5.109765 8.228456 131 125 29
0.250495 -1.555106 2.432613 130 124 28
0.215817 -1.326433 2.058749 131 125 29
1.874020 -1.496326 4.541866 223 220 213
0.925005 -0.741415 2.180220 223 220 213
2.254781 -1.770749 5.448701 224 221 214
0.561298 -0.449752 1.271771 224 221 214
0.563122 -0.447909 1.271599 222 219 212
1.096378 -0.831910 2.541150 222 219 210
1.702869 -1.273744 3.992343 220 217 208
1.783877 -1.323721 4.173251 220 217 208
1.262517 -0.927695 2.902575 222 219 210
1.653275 -1.192013 3.808463 222 219 210
4.205950 -2.963128 9.789821 218 215 206
1.208796 -0.850135 2.719085 218 215 206
1.290280 -0.899630 2.899948 217 214 205
2.308159 -1.584929 5.255078 216 213 204
0.342990 -2.770531 4.313355 137 131 35
0.348622 -2.764838 4.312822 136 130 34
0.749395 -5.777492 9.181926 133 127 31
0.776651 -5.881393 9.368078 131 125 29
0.318497 -2.400931 3.749478 131 125 29
0.116563 -0.896169 1.315072 131 125 29
0.604184 -4.215391 6.742153 131 125 29
0.596046 -4.092164 6.554192 130 124 28
0.621637 -4.197749 6.740502 130 124 28
0.903065 -5.622155 9.167386 128 122 26
0.247806 -1.552219 2.435045 129 123 27
0.269826 -1.661413 2.621693 129 123 27
2.672368 -2.124770 6.546466 223 220 213
2.681095 -2.115949 6.545641 222 219 212
3.498456 -2.735703 8.544352 224 221 214
3.509801 -2.724235 8.543279 225 222 215
1.819415 -1.409542 4.362391 222 219 212
1.693015 -1.274407 3.996887 224 221 212
1.698410 -1.268955 3.996377 221 218 209
1.779220 -1.318720 4.177462 220 217 208
0.727991 -0.541013 1.634684 221 218 209
0.730291 -0.538688 1.634466 222 219 210
0.967724 -0.693038 2.178196 220 217 208
0.587150 -0.420476 1.270547 219 216 207
4.079109 -2.806015 9.433070 217 214 205
0.590798 -0.416789 1.270201 216 213 204
0.730506 -5.907255 9.380518 137 131 35
0.343966 -2.759838 4.317034 135 129 33
0.364599 -2.870023 4.503972 132 126 30
0.370469 -2.864089 4.503417 130 124 28
0.716833 -5.396906 8.626247 130 124 28
0.146485 -1.124864 1.691245 131 125 29
0.639030 -4.427212 7.122481 132 126 30
0.614422 -4.190001 6.747027 132 126 30
0.640292 -4.294894 6.933470 132 126 30
0.649256 -4.285832 6.932622 131 125 29
0.728698 -4.729700 7.680670 130 124 28
0.875197 -5.498909 8.989045 128 122 26
2.665154 -2.117023 6.552991 224 221 214
2.673880 -2.108202 6.552165 223 220 213
3.489077 -2.725630 8.552835 223 220 213
3.500422 -2.714163 8.551761 223 220 213
2.634757 -2.016707 6.366976 223 220 211
1.843913 -1.374661 4.364003 221 218 209
0.728389 -0.536646 1.636186 221 218 209
4.031142 -2.832898 9.446001 220 217 208
2.976479 -2.064406 6.901316 220 217 208
2.985681 -2.055103 6.900446 219 216 207
0.589290 -0.415170 1.271565 218 215 206
0.462630 -3.805870 6.011030 136 130 34
0.339309 -2.754837 4.321245 134 128 32
0.359746 -2.864811 4.508362 132 126 30
0.365616 -2.858877 4.507806 129 123 27
0.631250 -4.811113 7.696529 129 123 27
0.175620 -1.352713 2.068128 130 124 28
0.178396 -1.349907 2.067866 132 126 30
0.181172 -1.347101 2.067603 131 125 29
0.119019 -0.887399 1.317282 133 127 31
0.499660 -3.507174 5.629426 133 127 31
0.683720 -4.627441 7.502514 133 127 31
0.779320 -5.183966 8.438720 134 128 32
0.720499 -4.720895 7.688084 129 123 27
0.794028 -5.038466 8.248279 130 124 28
1.354814 -1.075154 3.279908 223 220 213
1.359256 -1.070664 3.279488 223 220 213
4.004540 -3.099450 9.835010 222 219 212
2.545656 -1.961512 6.192039 224 221 214
2.553907 -1.953172 6.191259 223 220 211
2.876845 -2.149259 6.916904 223 220 211
1.165997 -0.874122 2.730623 223 220 211
1.844931 -1.363515 4.367837 222 219 210
1.625018 -1.193916 3.821493 222 219 210
1.328179 -0.971445 3.093378 221 218 209
1.711068 -1.237565 4.002402 221 218 209
2.172311 -1.555112 5.093062 221 218 209
3.132403 -2.152194 7.270825 221 218 209
1.903634 -1.304175 4.362282 219 216 207
0.498597 -4.146780 6.580461 136 130 34
0.507086 -4.138200 6.579658 133 127 31
0.296463 -2.397774 3.761441 132 126 30
0.316227 -2.508018 3.948780 129 123 27
0.173325 -1.350249 2.070204 129 123 27
0.176101 -1.347443 2.069941 131 125 29
0.115687 -0.887623 1.318819 132 126 30
0.117511 -0.885779 1.318646 133 127 31
0.493626 -3.500694 5.634883 134 128 32
0.484413 -3.379785 5.446545 134 128 32
0.491473 -3.372648 5.445877 134 128 32
0.345645 -2.348058 3.756787 133 127 31
0.884557 -5.840188 9.571298 130 124 28
0.795870 -5.018282 8.255221 131 125 29
0.552013 -3.441674 5.629358 129 123 27
1.278458 -1.014460 3.100897 224 221 214
1.501428 -1.179738 3.647429 223 220 213
2.538835 -1.954187 6.198208 223 220 213
4.019806 -3.061594 9.842277 224 221 212
2.348787 -1.755630 5.648561 223 220 211
3.325968 -2.460737 8.015829 222 219 210
1.320499 -0.971963 3.096919 221 218 209
2.228329 -1.616951 5.281539 220 217 208
1.328908 -0.963463 3.096124 220 217 208
1.712002 -1.227323 4.005925 220 217 208
0.729187 -0.527912 1.639190 220 217 208
1.570283 -1.110136 3.640914 221 218 209
3.411014 -2.374769 8.007782 222 219 210
3.344914 -2.311363 7.824826 223 220 211
3.278339 -2.248439 7.641916 222 219 210
0.972305 -0.672823 2.183816 221 218 209
0.505514 -4.254970 6.774859 132 126 30
0.670139 -5.516491 8.842342 129 123 27
0.292397 -2.393408 3.765118 131 125 29
0.282667 -2.273432 3.576670 128 122 26
0.138480 -1.121063 1.696621 130 124 28
0.173806 -1.344978 2.072017 130 124 28
0.176582 -1.342172 2.071754 133 127 31
0.116003 -0.884160 1.320010 135 129 33
0.527520 -3.713478 6.015300 136 130 34
0.551848 -3.818698 6.202367 134 128 32
0.576651 -3.923438 6.389390 133 127 31
0.601930 -4.027696 6.576367 131 125 29
0.524084 -3.457327 5.636887 130 124 28
0.869636 -5.444642 9.012835 130 124 28
1.704272 -1.355652 4.199637 225 222 215
1.274982 -1.010728 3.104041 224 221 214
1.497362 -1.175372 3.651107 223 220 213
1.502280 -1.170400 3.650641 223 220 213
1.071481 -0.827000 2.555188 223 220 211
1.074971 -0.823472 2.554858 223 220 211
0.782800 -0.599565 1.825026 223 220 211
3.094006 -2.287457 7.476786 222 219 210
1.616493 -1.184760 3.829204 222 219 210
2.222492 -1.610683 5.286818 220 217 208
1.258021 -0.898061 2.916276 219 216 207
1.642274 -1.158699 3.826765 221 218 209
1.571135 -1.100798 3.644127 223 220 211
2.047946 -1.397686 4.735226 222 219 210
0.718105 -6.095461 9.793041 130 124 28
0.278798 -2.269276 3.580169 126 120 24
0.136579 -1.119021 1.698341 130 124 28
0.171511 -1.342513 2.074093 130 124 28
0.174287 -1.339707 2.073830 132 126 30
0.177063 -1.336901 2.073568 135 129 33
0.179839 -1.334095 2.073305 137 131 35
0.585565 -4.159011 6.773127 137 131 35
0.496155 -3.472980 5.644416 136 130 34
0.503454 -3.465602 5.643725 134 128 32
0.527584 -3.570612 5.830971 131 125 29
0.518051 -3.450847 5.642344 129 123 27
0.231112 -1.541069 2.447510 129 123 27
0.146633 -0.979456 1.507861 131 125 29
1.565824 -1.227092 3.837450 224 221 214
3.972271 -3.064796 9.864196 223 220 213
1.361565 -1.045361 3.288191 222 219 210
0.780702 -0.597312 1.826924 222 219 210
1.379334 -1.027399 3.286510 221 218 209
0.639451 -0.481291 1.461232 221 218 209
2.956300 -2.150763 7.117398 222 219 210
2.291563 -1.658095 5.474538 220 217 208
2.223715 -1.597277 5.291429 220 217 208
0.727684 -0.521503 1.642412 220 217 208
1.643168 -1.148909 3.830132 222 219 210
4.116643 -2.789456 9.661007 221 218 209
0.694201 -5.969028 9.614007 129 123 27
0.274928 -2.265121 3.583669 127 121 25
0.169216 -1.340049 2.076169 130 124 28
0.171992 -1.337242 2.075906 133 127 31
0.174768 -1.334436 2.075643 135 129 33
0.177544 -1.331630 2.075381 135 129 33
0.817169 -5.844727 9.602372 136 130 34
0.829466 -5.832296 9.601209 134 128 32
0.497420 -3.459122 5.649182 132 126 30
0.521354 -3.563921 5.836606 130 124 28
0.900103 -6.018876 9.973901 129 123 27
0.228423 -1.538182 2.449942 129 123 27
0.144928 -0.977625 1.509403 130 124 28
2.421528 -1.901116 6.036191 224 221 214
1.850888 -1.446015 4.572681 223 220 213
2.437553 -1.884917 6.034675 223 220 213
1.644681 -1.267483 4.023129 222 219 212
2.828009 -2.135183 6.946169 221 218 209
1.375662 -1.023455 3.289832 220 217 208
0.786218 -0.587362 1.828101 220 217 208
1.762547 -1.277330 4.201664 221 218 209
2.217878 -1.591009 5.296709 221 218 209
2.300127 -1.636860 5.478614 220 217 208
2.844370 -1.989652 6.754933 220 217 208
0.803984 -0.569403 1.826420 221 218 209
0.578102 -0.410760 1.278729 224 221 212
3.723004 -2.520394 8.758365 222 219 210
0.270363 -2.390251 3.777081 129 123 27
0.166921 -1.337584 2.078244 130 124 28
0.169697 -1.334778 2.077982 132 126 30
0.141976 -1.105637 1.700910 134 128 32
0.144276 -1.103312 1.700693 134 128 32
0.476790 -3.467398 5.656021 134 128 32
0.484088 -3.460020 5.655330 132 126 30
0.507587 -3.564848 5.842954 130 124 28
0.515123 -3.557230 5.842241 129 123 27
0.208820 -1.423812 2.264127 129 123 27
0.211834 -1.420765 2.263842 131 125 29
0.676206 -4.294469 7.155929 132 126 30
3.195138 -2.519698 8.056676 223 220 213
1.707200 -1.323570 4.210672 223 220 213
1.495000 -1.152329 3.661208 222 219 212
1.354221 -1.037473 3.294834 222 219 210
1.577923 -1.197087 3.843210 222 219 210
1.006237 -0.746326 2.378524 220 217 208
0.638104 -0.475546 1.464120 222 219 210
2.294093 -1.630380 5.484071 220 217 208
0.950282 -0.674306 2.193971 219 216 207
0.574771 -0.410985 1.280266 220 217 208
0.576595 -0.409141 1.280093 223 220 211
2.719979 -1.842780 6.393011 222 219 210
0.332034 -2.960289 4.724571 130 124 28
0.710760 -5.909903 9.628905 128 122 26
0.553862 -4.530450 7.363673 131 125 29
0.150050 -1.221682 1.891693 131 125 29
0.167402 -1.332313 2.080057 131 125 29
0.170178 -1.329507 2.079795 132 126 30
0.142375 -1.101270 1.702412 132 126 30
0.812365 -5.935367 9.809298 133 127 31
0.493820 -3.565775 5.849302 132 126 30
0.501357 -3.558157 5.848589 130 124 28
0.313992 -2.209501 3.586239 129 123 27
0.209342 -1.418089 2.266095 131 125 29
0.668598 -4.286299 7.162810 132 126 30
3.186350 -2.510260 8.064625 224 221 214
0.977531 -0.769737 2.383417 225 222 215
1.702544 -1.318570 4.214883 224 221 214
1.418520 -1.092991 3.481731 222 219 212
3.760365 -2.827215 9.340358 223 220 211
0.784559 -0.580289 1.831657 219 216 207
0.787098 -0.577724 1.831416 220 217 208
2.206205 -1.578472 5.307267 221 218 209
3.933533 -2.780339 9.513980 220 217 208
2.970648 -2.087446 7.135002 218 215 206
0.571439 -0.411209 1.281802 218 215 206
0.573263 -0.409365 1.281630 219 216 207
0.575087 -0.407521 1.281457 221 218 209
0.956833 -0.662490 2.195369 221 218 209
1.645848 -1.119539 3.840235 222 219 210
0.326985 -2.954866 4.729138 135 129 33
0.358974 -3.050290 4.916277 131 125 29
0.309710 -2.589046 4.160275 133 127 31
0.753469 -6.101058 10.013429 130 124 28
0.280751 -2.107275 3.402352 132 126 30
0.285194 -2.102785 3.401931 131 125 29
0.510933 -3.663248 6.042894 130 124 28
0.223609 -1.526233 2.456929 131 125 29
0.660990 -4.278128 7.169691 132 126 30
3.605153 -2.835156 9.173111 225 222 215
1.985805 -1.533572 4.952516 224 221 214
3.822892 -2.870576 9.532840 223 220 211
2.750421 -2.038270 6.781828 219 216 207
3.062932 -2.233412 7.512922 220 217 208
1.007364 -0.733976 2.382772 220 217 208
1.759843 -1.250942 4.213232 220 217 208
2.462318 -1.690694 5.858258 220 217 208
0.802766 -0.557511 1.831633 221 218 209
3.010047 -2.031349 7.137594 221 218 209
0.245411 -2.262693 3.598995 137 131 35
0.561899 -4.999187 8.136854 133 127 31
0.299856 -2.589710 4.164819 133 127 31
0.305250 -2.584257 4.164309 134 128 32
0.366420 -3.031825 4.919822 132 126 30
0.335853 -2.680673 4.351738 131 125 29
0.391806 -3.006165 4.917420 132 126 30
0.383018 -2.887697 4.727926 130 124 28
0.281521 -2.098841 3.405253 131 125 29
0.369647 -2.646513 4.348541 130 124 28
0.674747 -4.630413 7.745526 131 125 29
0.220921 -1.523346 2.459361 132 126 30
0.636344 -4.159830 6.987859 132 126 30
3.821162 -2.978072 9.731721 226 223 216
2.123927 -1.637305 5.324506 224 221 212
3.534126 -2.631469 8.807254 221 218 209
3.421977 -2.490134 8.437215 220 217 208
1.078600 -0.783713 2.568534 220 217 210
2.046205 -1.461168 4.951209 220 217 208
4.061610 -2.862367 9.899296 218 215 206
2.531244 -1.734972 6.047267 219 216 207
0.800667 -0.555258 1.833531 220 217 208
0.480128 -4.429231 7.199126 139 133 37
0.319932 -2.687059 4.357015 132 126 30
0.325564 -2.681366 4.356482 134 128 32
0.331197 -2.675672 4.355950 131 125 29
0.386559 -3.000530 4.922165 131 125 29
0.407843 -3.105956 5.110636 128 122 26
0.141270 -1.090494 1.707136 130 124 28
0.177173 -1.308082 2.084708 131 125 29
0.179949 -1.305276 2.084446 132 126 30
0.682676 -4.732247 7.941900 132 126 30
0.709197 -4.832379 8.129875 132 126 30
0.628933 -4.151872 6.994562 132 126 30
2.947369 -2.316045 7.537135 230 227 220
3.881712 -3.021791 9.925028 226 223 216
3.823375 -2.953821 9.740063 224 221 214
2.118090 -1.631036 5.329785 224 221 212
1.550560 -1.189200 3.859607 223 220 211
2.924891 -2.211828 7.348777 223 220 211
3.006869 -2.255900 7.531505 223 220 211
0.988978 -0.741351 2.388866 220 217 208
1.503327 -1.110005 3.673591 219 216 207
1.508246 -1.105033 3.673126 220 217 208
0.854531 -0.623376 2.020618 220 217 210
2.928353 -2.081387 7.157965 220 217 208
3.691654 -2.579209 8.990588 218 215 206
1.836475 -1.281005 4.404008 219 216 207
2.666444 -1.838376 6.420808 220 217 208
2.674932 -1.829796 6.420005 219 216 207
0.798569 -0.553005 1.835429 221 218 209
2.691909 -1.812635 6.418398 219 216 207
0.472520 -4.421060 7.206007 133 127 31
0.103770 -0.997906 1.521580 133 127 31
0.320908 -2.676365 4.360694 134 128 32
0.326540 -2.670672 4.360161 131 125 29
0.366810 -2.883026 4.737638 131 125 29
0.372918 -2.876851 4.737060 127 121 25
0.139369 -1.088452 1.708856 130 124 28
0.190333 -1.416525 2.275966 130 124 28
0.161962 -1.192144 1.897362 132 126 30
0.654811 -4.363322 7.379403 132 126 30
2.939171 -2.307241 7.544549 225 222 215
0.539871 -0.430544 1.289674 225 222 215
0.541695 -0.428700 1.289501 225 222 215
2.988754 -2.257120 7.539858 222 219 212
2.998671 -2.247096 7.538920 221 218 211
1.494343 -1.110610 3.677734 223 220 213
1.499261 -1.105638 3.677269 223 220 213
1.504180 -1.100667 3.676803 222 219 212
3.634599 -2.616510 9.003901 219 216 209
2.984639 -2.134750 7.349603 218 215 208
2.920549 -2.073005 7.165024 217 214 205
1.301831 -0.925620 3.124018 218 215 206
3.830372 -2.671673 9.366665 220 217 208
1.831622 -1.275793 4.408397 220 217 208
2.808868 -1.932837 6.794303 219 216 207
3.717344 -2.532867 8.996071 218 215 206
1.022063 -0.702303 2.387913 218 215 206
1.025315 -0.699015 2.387605 218 215 206
0.610876 -5.778782 9.488716 131 125 29
0.102066 -0.996076 1.523122 132 126 30
0.432759 -3.940913 6.452717 134 128 32
0.544031 -4.837393 7.968615 133 127 31
0.134483 -1.215546 1.901661 133 127 31
0.110314 -0.987738 1.522342 136 130 34
0.669637 -5.593264 9.292353 133 127 31
0.361760 -2.877602 4.742206 135 129 33
0.367869 -2.871428 4.741628 128 122 26
0.126810 -0.971063 1.520781 129 123 27
0.190855 -1.410803 2.277934 131 125 29
0.162401 -1.187325 1.899020 135 129 33
0.468406 -3.274279 5.495328 132 126 30
0.491676 -3.376876 5.683929 132 126 30
0.515423 -3.478992 5.872486 131 125 29
0.098299 -0.996329 1.524859 131 125 29
0.100361 -0.994245 1.524664 131 125 29
0.550367 -5.064906 8.356739 131 125 29
0.548317 -4.941269 8.165970 130 124 28
0.106547 -0.987992 1.524079 131 125 29
0.108609 -0.985907 1.523884 135 129 33
0.365175 -3.115042 5.127897 133 127 31
0.356710 -2.872179 4.746773 136 130 34
0.362819 -2.866005 4.746195 129 123 27
0.375035 -2.853656 4.745039 128 122 26
0.188363 -1.408127 2.280188 130 124 28
0.509895 -3.597301 6.069017 132 126 30
0.501656 -3.479920 5.878834 131 125 29
0.509192 -3.472301 5.878121 129 123 27
0.096594 -0.994499 1.526401 129 123 27
0.518940 -4.953053 8.175708 131 125 29
0.443610 -4.152104 6.844982 130 124 28
0.552209 -5.044722 8.363682 127 121 25
0.130287 -1.211040 1.905457 129 123 27
0.106904 -0.984077 1.525425 134 128 32
0.137901 -1.203343 1.904736 136 130 34
0.532520 -4.312828 7.218813 135 129 33
0.541722 -4.303526 7.217942 129 123 27
0.384612 -2.958747 4.939344 130 124 28
0.170769 -1.295417 2.092748 129 123 27
0.173545 -1.292611 2.092486 133 127 31
0.503467 -3.590399 6.074830 131 125 29
0.527058 -3.691851 6.263720 130 124 28
0.551125 -3.792823 6.452565 128 122 26
0.083316 -0.879478 1.337756 130 124 28
0.219507 -2.115591 3.428965 128 122 26
0.128188 -1.208786 1.907355 130 124 28
0.105200 -0.982246 1.526967 131 125 29
0.107262 -0.980162 1.526772 132 126 30
0.135802 -1.201090 1.906634 134 128 32
0.569619 -4.759022 7.986589 134 128 32
0.607205 -4.970808 8.365595 132 126 30
0.595808 -4.607660 7.792830 130 124 28
0.450895 -3.255474 5.511165 130 124 28
0.520434 -3.684738 6.269711 128 122 26
0.544304 -3.785498 6.458734 126 120 24
0.081808 -0.877858 1.339120 127 121 25
0.373996 -3.694476 6.097490 129 123 27
0.215835 -2.111647 3.432286 126 120 24
0.123552 -1.209099 1.909492 127 121 25
0.101433 -0.982500 1.528704 131 125 29
0.131166 -1.201402 1.908772 131 125 29
0.107619 -0.976247 1.528119 133 127 31
0.614347 -5.194224 8.754918 131 125 29
0.273967 -2.301842 3.809667 127 121 25
0.155075 -1.301713 2.097951 128 122 26
0.129862 -1.078242 1.717455 132 126 30
0.374119 -2.947478 4.948835 130 124 28
0.163403 -1.293294 2.097163 130 124 28
0.298558 -2.276984 3.807340 135 129 33
0.437998 -3.256343 5.517113 133 127 31
0.445058 -3.249206 5.516445 130 124 28
0.467542 -3.350958 5.705758 129 123 27
0.521823 -3.669525 6.274944 127 121 25
0.561836 -5.476299 9.150522 126 120 24
0.121454 -1.206845 1.911390 127 121 25
0.099728 -0.980669 1.530246 131 125 29
0.398667 -3.656138 6.100361 131 125 29
0.129068 -1.199149 1.910670 130 124 28
0.105914 -0.974416 1.529661 131 125 29
0.474326 -4.075934 6.859602 129 123 27
0.483052 -4.067112 6.858777 124 118 22
0.152780 -1.299248 2.100026 127 121 25
0.127960 -1.076200 1.719175 131 125 29
0.161108 -1.290829 2.099238 132 126 30
0.294493 -2.272617 3.811018 134 128 32
0.274353 -2.044838 3.429723 132 126 30
0.476734 -3.453155 5.901374 131 125 29
0.437878 -3.120226 5.330251 129 123 27
0.265503 -2.788078 4.584091 129 123 27
0.271374 -2.782145 4.583535 129 123 27
0.529343 -5.241865 8.777833 126 120 24
0.119356 -1.204592 1.913288 128 122 26
0.098024 -0.978838 1.531788 131 125 29
0.294855 -2.758409 4.581314 130 124 28
0.104210 -0.972585 1.531202 130 124 28
0.467112 -4.068186 6.866127 130 124 28
0.475838 -4.059365 6.865302 126 120 24
0.150485 -1.296783 2.102102 128 122 26
0.751124 -6.006947 10.290923 129 123 27
0.130659 -1.069508 1.720459 131 125 29
0.161589 -1.285559 2.101051 132 126 30
0.275123 -2.036404 3.432624 131 125 29
0.447505 -3.222395 5.525667 130 124 28
0.346940 -3.681627 6.115665 129 123 27
0.354715 -3.673769 6.114929 131 125 29
0.238604 -2.435407 4.014810 128 122 26
0.096319 -0.977008 1.533329 130 124 28
0.433718 -4.086902 6.875129 130 124 28
0.102505 -0.970755 1.532744 130 124 28
0.180709 -1.631192 2.676857 130 124 28
0.432459 -3.595181 6.107573 131 125 29
0.100996 -0.849031 1.340968 129 123 27
0.102820 -0.847187 1.340796 129 123 27
0.104644 -0.845343 1.340623 129 123 27
0.164846 -1.277482 2.102602 131 125 29
0.351102 -3.786859 6.312554 132 126 30
0.359115 -3.778759 6.311796 133 127 31
0.201145 -2.095871 3.445572 131 125 29
0.375140 -3.762561 6.310280 129 123 27
0.332267 -3.191708 5.353946 129 123 27
0.100800 -0.968924 1.534286 130 124 28
0.359994 -3.040843 5.159245 130 124 28
0.433806 -3.580420 6.112651 128 122 26
0.379747 -3.020875 5.157376 126 120 24
0.273053 -2.146021 3.630846 125 119 23
0.162551 -1.275017 2.104677 128 122 26
0.179963 -1.380254 2.295108 130 124 28
0.331715 -2.455237 4.201530 132 126 30
0.175735 -1.869045 3.066475 133 127 31
0.401836 -4.089049 6.889830 131 125 29
0.206357 -2.082947 3.448053 130 124 28
0.233965 -2.299895 3.829916 130 124 28
0.487120 -4.614980 7.842948 128 122 26
0.123213 -1.187570 1.918021 128 122 26
0.101157 -0.965009 1.535633 130 124 28
0.128289 -1.182438 1.917540 132 126 30
0.360739 -3.151169 5.355820 132 126 30
0.341539 -2.925721 4.973162 129 123 27
0.593902 -4.751894 8.217319 124 118 22
0.115591 -0.950418 1.534267 123 117 21
0.160256 -1.272552 2.106753 127 121 25
0.177471 -1.377578 2.297362 131 125 29
0.327256 -2.450448 4.205563 131 125 29
3.085088 -3.039694 10.066457 225 222 215
3.040033 -2.970605 9.875455 225 222 215
1.542852 -1.503555 4.940223 225 222 215
3.123407 -3.000960 10.062832 225 222 215
1.555545 -1.490724 4.939022 225 222 215
0.680191 -0.656071 2.092870 225 222 215
0.569531 -0.538664 1.712811 229 226 219
0.571831 -0.536339 1.712593 198 195 188
0.574131 -0.534015 1.712375 139 136 129
0.456014 -0.424145 1.333021 103 100 93
0.699623 -0.636428 2.091032 72 72 64
2.644293 -2.338936 8.155514 81 81 73
2.289153 -2.010128 7.017526 112 112 104
2.298117 -2.001066 7.016678 192 192 184
2.614073 -2.254850 7.963108 221 221 213
0.534781 -0.459158 1.520833 224 221 212
2.109360 -1.947974 6.649690 228 225 218
0.634541 -0.583208 1.903624 119 116 109
0.637079 -0.580643 1.903384 76 76 68
1.909852 -1.692752 5.886870 78 78 70
0.459978 -0.416994 1.333867 103 103 95
2.473596 -2.150902 7.592349 173 173 165
2.483275 -2.141119 7.591433 217 217 209
2.738712 -2.339805 8.348962 219 219 211
2.335529 -1.947798 7.019140 224 219 213
1.747739 -1.616009 5.516086 225 222 215
0.924059 -0.855240 2.855848 222 219 212
0.927787 -0.851472 2.855495 172 169 162
0.632442 -0.580955 1.905521 132 129 122
0.634980 -0.578390 1.905281 81 81 73
2.092744 -1.836326 6.461362 92 92 84
0.460295 -0.413531 1.335058 148 148 140
2.292259 -1.976086 7.029235 214 214 206
2.729923 -2.330366 8.356911 220 220 212
2.177274 -2.076868 7.046117 225 222 217
1.867246 -1.709843 5.900992 225 222 215
0.865325 -0.794783 2.668158 192 189 182
3.253529 -2.916787 10.271917 138 135 128
0.632882 -0.576136 1.907179 99 99 91
3.111566 -2.720082 9.698120 85 85 77
2.154744 -1.872837 6.656762 122 122 114
2.284848 -1.968127 7.035938 203 203 195
2.537997 -2.165844 7.794958 221 221 213
0.723275 -0.598166 2.094369 227 224 217
1.421278 -1.140023 4.181500 226 223 216
1.426672 -1.134570 4.180990 226 223 216
2.908618 -2.791045 9.529652 226 223 218
1.130274 -1.085908 3.624938 226 223 218
0.964942 -0.914056 3.052874 224 221 216
1.035785 -0.955437 3.242074 229 226 219
2.993030 -2.705717 9.521666 207 204 197
2.945667 -2.640601 9.330244 143 140 133
0.630784 -0.573883 1.909077 113 113 105
0.633322 -0.571317 1.908837 70 70 62
2.920994 -2.552549 9.136676 77 77 69
2.208100 -1.917265 6.853299 99 99 91
2.338048 -2.011892 7.232809 186 186 178
2.408100 -2.054073 7.422083 219 219 211
2.661889 -2.249501 8.181680 222 222 214
0.709875 -0.606926 2.097496 223 223 215
3.249279 -2.672674 9.889225 225 225 217
0.598229 -0.602416 1.913856 225 221 218
1.623961 -1.592041 5.345917 225 221 218
1.859112 -1.804669 6.107915 225 221 218
1.809566 -1.742170 5.916541 227 223 220
1.759545 -1.680151 5.725212 227 223 220
1.824639 -1.726933 5.915115 225 222 217
1.379167 -1.276579 4.388769 228 225 218
2.806102 -2.536142 8.959240 218 215 208
1.988306 -1.786655 6.291752 158 155 148
3.245027 -2.880532 10.290143 119 119 111
1.049126 -0.934705 3.243626 74 74 66
2.731604 -2.386284 8.574165 72 72 64
3.284060 -2.841076 10.286450 87 87 79
2.451269 -2.106747 7.620381 159 159 151
2.521600 -2.148236 7.809788 212 212 204
2.835969 -2.393369 8.760352 221 221 213
3.030461 -2.534514 9.330135 224 224 216
1.649892 -1.340664 4.951340 224 224 216
1.656239 -1.334248 4.950739 224 224 216
0.661680 -0.538277 1.907853 225 225 217
1.803336 -1.735478 5.922176 224 220 217
1.810872 -1.727860 5.921463 225 221 218
1.818409 -1.720242 5.920750 224 220 217
1.257883 -1.165126 4.011573 231 228 221
1.848554 -1.689769 5.917897 229 226 219
1.091827 -0.996467 3.438622 227 224 217
3.103205 -2.777124 9.919830 176 173 166
2.523085 -2.241816 8.012508 127 127 119
1.045650 -0.930973 3.246770 92 92 84
2.253651 -1.953312 7.056895 80 80 72
2.443268 -2.098154 7.627617 125 125 117
1.122923 -0.965034 3.435680 211 211 203
2.766093 -2.332688 8.578178 220 220 212
3.081620 -2.574599 9.529430 223 223 215
1.079284 -0.896974 3.243587 226 226 218
3.117797 -2.538030 9.526007 225 225 217
1.706529 -1.384646 5.146451 226 226 218
1.212371 -1.202246 4.019332 225 221 218
1.217527 -1.197033 4.018844 225 221 218
2.753275 -2.662199 9.175809 225 221 220
1.284766 -1.240827 4.208862 224 220 217
1.290160 -1.235374 4.208352 224 220 217
1.467763 -1.391131 4.780689 224 221 216
1.473871 -1.384957 4.780111 223 220 215
3.100582 -2.869934 10.124851 224 221 214
2.997121 -2.750993 9.741879 231 228 221
2.025639 -1.833061 6.495329 230 227 220
0.504290 -0.465102 1.533382 205 202 195
2.455621 -2.180748 7.829309 130 130 122
2.406231 -2.118912 7.637602 106 106 98
3.070902 -2.676412 9.734898 72 72 64
2.724502 -2.355998 8.589390 77 77 69
2.795392 -2.396101 8.779063 101 101 93
2.746239 -2.334025 8.587333 194 194 186
2.878102 -2.424256 8.967618 220 220 212
2.889447 -2.412788 8.966545 223 223 215
0.781810 -0.631620 2.292646 226 226 218
1.908042 -1.504885 5.720934 227 224 217
1.264124 -1.252396 4.214427 227 223 220
1.269518 -1.246943 4.213917 228 224 221
1.274912 -1.241491 4.213406 227 223 222
1.280307 -1.236038 4.212896 226 222 221
1.342669 -1.284351 4.403535 228 224 221
1.348301 -1.278658 4.403002 228 225 220
1.468821 -1.379534 4.784679 227 224 219
3.147704 -2.911638 10.325483 226 223 216
3.102795 -2.845683 10.133193 231 228 221
2.202970 -1.973641 7.073694 229 226 219
2.211935 -1.964579 7.072846 140 140 132
2.693779 -2.368322 8.599574 117 117 109
2.645300 -2.305975 8.407621 78 78 70
2.536759 -2.192991 8.024811 68 68 60
2.666561 -2.284483 8.405609 90 90 82
2.737254 -2.324375 8.595460 173 173 165
0.818520 -0.700669 2.487730 219 219 211
0.882310 -0.747538 2.678234 227 227 219
1.068128 -0.893759 3.250272 227 227 219
2.048559 -1.684320 6.302144 227 227 219
2.056571 -1.676221 6.301386 227 227 219
0.773290 -0.635037 2.295470 225 225 217
0.776304 -0.631990 2.295185 226 226 218
2.018643 -1.603210 6.108435 227 227 219
0.720128 -0.577424 2.103960 230 227 222
1.332380 -1.285044 4.408279 229 225 222
1.338012 -1.279350 4.407746 231 227 224
1.457663 -1.380285 4.789824 231 227 224
1.463771 -1.374110 4.789246 230 226 223
1.469880 -1.367936 4.788668 228 225 220
1.591434 -1.466946 5.170565 232 229 224
1.598018 -1.460290 5.169942 231 228 221
1.604603 -1.453634 5.169319 226 225 220
2.195559 -1.965682 7.080397 230 230 222
2.145848 -1.904991 6.888401 162 162 154
2.390228 -2.101726 7.652075 122 122 114
2.518209 -2.194240 8.033364 91 91 83
2.647142 -2.285791 8.414564 62 62 54
2.538518 -2.173710 8.031443 77 77 69
3.207191 -2.718140 10.131866 141 141 133
3.099757 -2.604856 9.748633 214 214 206
3.232737 -2.692317 10.129449 231 231 223
1.027870 -0.816266 3.060197 230 227 220
0.989706 -0.958540 3.263322 228 224 221
2.634565 -2.501245 8.816588 230 226 223
1.572822 -1.474411 5.176734 233 229 226
1.522118 -1.415134 4.984673 233 230 225
1.585991 -1.461100 5.175488 235 232 225
1.823633 -1.663005 5.940438 236 233 226
3.003514 -2.680950 9.765972 232 232 224
2.372548 -2.102917 7.660228 195 195 187
2.382227 -2.093133 7.659312 138 138 130
2.509814 -2.185224 8.040957 102 102 94
2.993509 -2.580533 9.570060 66 66 58
2.827276 -2.416975 8.995213 74 74 66
3.017626 -2.556154 9.567778 116 116 108
3.089592 -2.593939 9.757827 206 206 198
3.222177 -2.680977 10.138999 230 230 222
2.570742 -2.123635 8.035192 234 234 226
2.702138 -2.211877 8.416477 228 228 220
2.651910 -2.152118 8.224371 231 231 223
2.723399 -2.190385 8.414465 228 228 220
1.691340 -1.354607 5.165520 223 223 215
1.082198 -0.865045 3.254570 218 218 210
1.086402 -0.860795 3.254172 213 210 203
1.361596 -1.346217 4.610074 229 225 222
1.367467 -1.340283 4.609519 230 226 223
1.373337 -1.334349 4.608964 230 226 223
1.379207 -1.328415 4.608408 230 226 225
1.836098 -1.747537 6.141322 232 228 227
1.504179 -1.422330 4.990620 232 228 225
1.510525 -1.415915 4.990019 234 231 226
2.508214 -2.279462 8.244925 237 234 225
2.692023 -2.424021 8.818587 233 233 223
1.193995 -1.075153 3.837861 227 227 217
2.364547 -2.094324 7.667465 203 203 193
2.374225 -2.084540 7.666549 151 151 141
2.853965 -2.480564 9.197300 112 112 102
2.806552 -2.418371 9.004769 71 71 63
2.877131 -2.457148 9.195109 71 71 63
3.007657 -2.545447 9.576794 93 93 85
3.019716 -2.533258 9.575653 155 155 147
2.732036 -2.273454 8.617783 203 203 195
2.803090 -2.311749 8.808078 214 214 206
1.545296 -1.270645 4.789711 202 202 194
1.551405 -1.264471 4.789133 195 195 187
3.080010 -2.472310 9.569949 185 185 177
3.030931 -2.411800 9.377574 172 172 164
3.042751 -2.399851 9.376456 167 167 159
0.959699 -0.761385 2.874940 165 162 155
1.473547 -1.442356 4.997767 232 228 225
2.381323 -2.280106 8.066712 235 231 230
2.560020 -2.428603 8.641336 237 233 232
