ply
format ascii 1.0
element vertex 1240
property float x
property float y
property float z
property uchar red
property uchar green
property uchar blue
end_header
1.021242 0.118021 2.943187 201 196 177
0.980905 0.115004 2.712667 120 119 99
3.237971 0.398676 10.128547 89 87 66
0.585216 0.066347 1.361292 131 129 106
1.225969 0.148720 3.378601 202 198 169
1.232115 0.149942 3.377331 162 159 126
1.379652 0.169271 3.824559 154 151 116
1.315475 0.161514 3.598964 146 142 105
1.464872 0.181212 4.045807 139 134 92
1.543946 0.191931 4.268325 134 127 73
0.618107 0.071229 1.592879 202 197 178
0.889233 0.106695 2.492060 198 193 174
1.047051 0.128853 2.937053 193 188 169
1.120090 0.138765 3.160762 133 131 110
0.587392 0.069732 1.360426 170 165 143
1.148960 0.144505 3.154798 208 204 179
1.224603 0.154935 3.377969 180 177 146
1.371230 0.174868 3.825274 158 156 118
1.307508 0.166808 3.599640 147 145 106
1.385011 0.177607 3.822428 140 136 98
1.463258 0.188555 4.045061 134 127 81
1.542249 0.199650 4.267540 133 125 63
0.810018 0.100078 2.268989 199 194 175
0.685149 0.083686 1.817300 198 193 174
0.883539 0.110479 2.492544 198 193 174
0.888197 0.111405 2.491581 198 193 174
0.897513 0.113257 2.489657 196 191 172
0.978669 0.125175 2.711634 191 184 166
1.118806 0.144603 3.160169 189 184 164
0.586770 0.072561 1.360139 199 194 172
1.147677 0.150343 3.154205 188 184 157
1.223237 0.161149 3.377338 161 158 125
1.299541 0.172102 3.600317 149 147 108
1.306059 0.173398 3.598971 145 142 101
1.383479 0.184574 3.821720 136 132 87
1.461644 0.195897 4.044315 131 124 70
0.809066 0.104412 2.268549 199 194 175
0.877846 0.114262 2.493027 197 192 173
0.882504 0.115188 2.492065 196 191 172
0.887162 0.116114 2.491103 195 190 171
0.826209 0.107820 2.265008 194 189 170
0.830495 0.108672 2.264122 193 188 169
0.572160 0.072608 1.362741 191 184 166
1.117523 0.150441 3.159576 187 180 161
1.209579 0.164919 3.379246 194 190 165
1.215725 0.166141 3.377976 165 162 131
1.291574 0.177397 3.600994 155 152 117
1.298092 0.178693 3.599648 147 145 106
1.304611 0.179989 3.598301 139 136 91
1.381948 0.191540 3.821012 131 128 77
1.388838 0.192910 3.819589 128 122 60
0.808113 0.108745 2.268109 198 193 174
0.876811 0.118972 2.492549 198 193 174
0.881469 0.119898 2.491587 196 191 172
0.886127 0.120824 2.490624 194 187 168
2.332404 0.332869 7.441749 193 186 167
0.961343 0.132346 2.713718 191 184 165
0.966373 0.133346 2.712679 188 181 162
1.110466 0.155131 3.160176 188 181 162
1.048852 0.146313 2.934272 180 174 152
1.257535 0.177507 3.607057 179 173 151
1.332185 0.188917 3.830268 190 184 160
0.791040 0.108783 2.033004 200 194 170
1.208213 0.171133 3.378615 175 171 146
1.214359 0.172355 3.377345 157 154 121
1.290126 0.183987 3.600325 153 150 115
1.296644 0.185283 3.598978 141 139 101
1.303162 0.186579 3.597632 136 133 88
1.380417 0.198507 3.820304 126 124 67
0.822351 0.115008 2.026536 134 126 45
0.807161 0.113078 2.267669 196 191 172
1.197422 0.172434 3.618507 196 191 172
0.880434 0.124607 2.491108 195 188 169
0.950165 0.135432 2.715279 193 186 167
0.955195 0.136432 2.714240 190 183 164
0.960225 0.137432 2.713201 188 181 162
1.031445 0.148553 2.937065 185 180 160
1.042249 0.150701 2.934833 183 177 155
1.047651 0.151775 2.933717 177 171 149
3.780444 0.573533 11.912232 172 166 142
0.858592 0.123304 2.257044 175 169 143
1.206847 0.177347 3.377983 160 156 129
1.212993 0.178569 3.376714 157 154 121
1.080063 0.158219 2.927022 146 143 108
1.295195 0.191873 3.598309 138 135 100
0.950304 0.138499 2.476675 129 126 81
1.378886 0.205473 3.819596 123 121 60
0.879399 0.129317 2.490630 192 187 167
0.884057 0.130243 2.489667 189 184 164
0.954077 0.141518 2.713724 188 183 163
0.959107 0.142518 2.712685 186 179 160
0.964137 0.143518 2.711646 185 178 160
0.969167 0.144518 2.710606 183 176 157
1.041048 0.156162 2.934278 178 172 150
1.046450 0.157237 2.933162 176 170 146
1.119447 0.169103 3.156604 173 167 143
1.125222 0.170251 3.155411 169 163 137
1.130996 0.171399 3.154218 163 159 130
1.205481 0.183562 3.377352 150 147 116
1.211627 0.184784 3.376082 151 147 110
0.939952 0.141356 2.478121 144 139 99
1.293747 0.198464 3.597639 136 129 85
0.949268 0.143209 2.476196 130 121 66
1.024498 0.155519 2.699176 126 119 49
0.745754 0.110686 1.802675 128 121 41
0.333993 0.003248 4.987263 191 185 169
0.286800 0.016410 2.612355 197 191 177
0.256140 0.014822 2.141758 199 193 179
1.130361 0.175112 3.391957 191 186 166
0.878363 0.134026 2.490151 188 183 163
0.883021 0.134952 2.489189 189 182 163
1.279360 0.200227 3.838108 186 179 160
0.957989 0.147603 2.712168 184 177 158
0.963020 0.148603 2.711129 182 175 156
0.901653 0.138657 2.485340 180 173 154
0.906311 0.139583 2.484378 175 169 145
0.709549 0.107225 1.809628 173 167 141
0.848115 0.130267 2.257934 173 167 141
1.123938 0.176089 3.154818 168 163 134
0.924943 0.143287 2.480529 159 156 123
0.929601 0.144214 2.479567 149 146 111
0.934259 0.145140 2.478604 144 139 101
0.938917 0.146066 2.477642 143 136 92
1.088466 0.171291 2.923680 131 121 60
0.744967 0.114267 1.802311 129 123 39
0.249946 0.010274 3.096097 191 185 171
0.285410 0.015463 3.327181 194 188 174
0.369883 0.024811 4.263372 196 190 176
0.868012 0.136884 2.491597 192 185 167
0.872670 0.137810 2.490635 191 184 165
0.877328 0.138736 2.489673 188 181 162
1.206113 0.194797 3.613805 185 178 159
0.756249 0.118386 2.037864 184 177 158
0.760163 0.119164 2.037056 183 176 157
0.961902 0.153689 2.710612 178 172 150
0.900618 0.143366 2.484862 177 171 147
1.038647 0.167086 2.933169 173 167 141
0.842877 0.133748 2.258379 171 166 137
0.914592 0.146145 2.481975 168 163 133
1.122655 0.181927 3.154225 162 157 125
0.997112 0.160690 2.703339 147 143 105
0.726471 0.114327 1.805606 139 134 92
0.937882 0.150775 2.477164 137 129 82
1.081864 0.175679 2.924241 129 120 65
1.087266 0.176753 2.923125 126 117 50
0.814958 0.130059 2.025736 129 123 37
0.238301 -0.003972 5.957960 181 175 161
0.203290 0.005229 3.343287 184 178 164
0.739724 0.119231 2.040696 192 185 166
1.127629 0.187540 3.390694 190 183 164
1.133776 0.188762 3.389424 186 179 161
1.204664 0.201387 3.613135 182 175 156
1.217701 0.203979 3.610442 181 174 155
1.290078 0.216900 3.833846 177 171 149
0.833352 0.136377 2.259710 174 168 142
1.037447 0.172548 2.932614 170 165 136
0.908899 0.149928 2.482459 171 166 136
0.995994 0.165776 2.702822 144 139 97
0.725683 0.117908 1.805242 139 132 88
1.006054 0.167776 2.700744 133 125 76
1.080663 0.181141 2.923686 127 118 59
0.210938 0.017149 2.387650 192 186 172
0.344868 0.035165 4.266381 192 186 172
0.225494 0.022196 1.908044 198 192 178
0.395704 0.045272 4.255880 198 192 178
1.056573 0.180975 3.166159 189 182 163
1.126263 0.193754 3.390063 188 181 162
1.132410 0.194976 3.388793 183 176 157
1.138556 0.196198 3.387523 181 174 155
0.559414 0.090741 1.362464 180 173 154
1.216252 0.210569 3.609773 179 173 151
1.288546 0.223867 3.833138 178 172 148
1.295437 0.225237 3.831715 172 166 140
0.777993 0.130970 2.032209 164 159 127
0.917180 0.156490 2.480056 157 153 118
0.989846 0.169861 2.703344 149 144 106
0.994876 0.170861 2.702305 140 135 93
0.931154 0.159268 2.477169 135 128 82
1.074060 0.185528 2.924247 130 120 69
1.079463 0.186602 2.923131 125 115 54
1.364339 0.238936 3.817481 122 114 42
0.809304 0.137195 2.025741 124 117 37
0.464761 0.044777 11.864357 189 183 169
0.459847 0.045852 11.150639 185 179 165
0.153114 0.012911 1.445980 190 184 170
0.303794 0.033978 4.512031 192 186 172
0.311428 0.035495 4.510454 187 181 167
0.329274 0.040412 4.030279 190 184 170
0.379220 0.048290 4.734694 192 186 172
0.403040 0.053710 4.491529 192 186 172
0.354422 0.050884 2.119128 222 216 202
0.134374 0.011263 2.164003 184 178 164
0.473846 0.072055 7.572227 189 183 169
0.300809 0.042315 3.796946 190 184 170
0.282958 0.039640 3.086066 196 190 176
0.534726 0.085908 6.130515 196 190 176
0.851105 0.144441 9.637996 197 191 177
0.133504 0.015221 2.163601 182 176 162
0.156539 0.020104 2.873244 182 176 162
0.160935 0.020776 2.396068 184 178 164
0.447166 0.079708 7.099617 192 186 172
0.318915 0.052793 3.792236 192 186 172
0.924952 0.177030 12.477996 193 187 173
0.576160 0.105356 7.072969 191 185 171
0.610763 0.131523 10.397179 190 184 170
0.418297 0.080418 4.246895 194 188 174
0.263945 0.079552 10.228283 179 175 163
0.364490 0.076497 4.018907 193 187 173
0.385161 0.080607 4.014637 196 190 176
0.409421 0.086317 4.247649 197 191 177
0.381200 0.078933 3.777432 188 182 168
0.369604 0.075741 3.541804 181 175 161
0.375751 0.076963 3.540535 192 186 172
0.381897 0.078185 3.539265 190 184 170
0.388043 0.079407 3.537995 196 190 176
0.394189 0.080629 3.536726 200 194 180
0.265335 0.047033 1.421134 209 203 189
1.031964 0.219843 6.737301 219 213 199
0.520733 0.102244 2.558491 218 210 197
0.100368 0.018465 1.692765 177 173 161
0.132362 0.028663 2.400060 183 176 160
0.385528 0.119925 9.962737 181 175 161
0.209509 0.044002 2.384123 190 184 170
0.457751 0.109984 5.426426 197 191 177
0.376739 0.086204 4.015353 182 176 162
0.366715 0.082932 3.779456 149 143 129
0.436856 0.099435 4.240902 49 43 29
0.444118 0.100879 4.239402 71 65 51
0.470899 0.107483 4.471837 111 105 91
0.577989 0.135170 5.639555 190 184 170
0.587484 0.137057 5.637594 200 194 180
0.631078 0.144446 5.390620 205 199 185
0.610478 0.137792 4.918939 209 203 189
0.755702 0.161550 3.937068 220 212 201
0.396248 0.142485 10.433941 109 103 89
0.239161 0.067792 4.280662 185 179 165
0.447827 0.127667 6.854596 189 183 169
0.306306 0.079471 4.028879 190 184 170
0.302732 0.073745 3.315879 194 188 174
0.415913 0.107950 4.957887 190 184 170
0.368318 0.091800 4.016068 145 139 125
0.499923 0.129667 5.654270 78 72 58
0.406193 0.101002 4.246157 137 131 117
0.395879 0.097280 4.010375 171 165 151
0.474562 0.119610 4.945771 184 178 164
0.501261 0.126590 5.178169 193 187 173
0.584780 0.149882 6.112566 188 182 168
0.595019 0.151918 6.110451 162 156 142
0.430448 0.102482 3.765321 202 196 182
0.526793 0.123309 3.983331 202 196 182
0.345289 0.073849 2.117524 209 203 189
0.139231 0.057652 4.538083 176 172 160
0.228982 0.071368 4.043828 155 149 135
0.244809 0.076579 4.278416 186 180 166
0.176121 0.044345 2.151889 183 177 163
0.480119 0.139877 6.132665 189 183 169
0.344263 0.092224 3.782156 128 122 108
0.206733 0.046303 1.669850 46 40 26
0.380567 0.101507 4.012514 186 180 166
0.387457 0.102877 4.011091 197 191 177
0.464322 0.126416 4.946642 197 191 177
0.426366 0.112677 4.240910 199 193 179
0.440890 0.115564 4.237910 201 195 181
0.448152 0.117008 4.236410 198 192 178
0.534318 0.142397 5.170039 189 183 169
0.650729 0.159350 4.432419 206 200 186
0.719438 0.173010 4.418225 215 209 195
0.144832 0.101216 7.865021 177 173 161
0.148972 0.038163 1.681311 177 171 157
0.351475 0.102993 4.017500 126 120 106
0.355851 0.101407 3.778794 189 183 169
0.329036 0.091162 3.308729 188 182 168
0.392816 0.111213 4.008959 183 177 163
0.381924 0.106591 3.773408 166 160 146
0.479216 0.138218 4.942319 176 170 156
0.876661 0.268831 9.854060 191 185 171
0.590468 0.172622 6.108348 203 197 183
0.414514 0.113070 3.766675 199 193 179
0.421033 0.114366 3.765328 183 177 163
0.794519 0.232846 7.968612 19 13 0
0.434069 0.116958 3.762635 192 186 172
1.286677 0.360179 10.720568 207 201 187
0.525324 0.135102 3.743784 211 205 191
0.558182 0.144091 3.974799 208 202 188
0.351377 0.083320 2.115103 204 198 184
1.607832 0.441230 12.318839 210 204 190
0.668425 0.166011 3.952025 218 212 198
0.560864 0.134798 3.023036 217 211 197
0.429655 0.098883 2.098933 219 213 199
0.129531 0.094630 6.439792 173 169 157
0.115676 0.063382 4.065186 173 169 157
0.107060 0.033175 1.689498 183 177 163
0.295583 0.150440 8.307464 182 176 162
0.234319 0.089820 4.278424 174 168 154
0.180182 0.059111 2.625380 81 75 61
0.263368 0.095596 4.272423 180 174 160
0.260371 0.092151 4.035296 189 183 169
0.309787 0.113373 4.976075 174 168 154
0.274151 0.094891 4.032449 186 180 166
0.343053 0.108590 4.018215 113 107 93
0.347884 0.106701 3.779471 186 180 166
0.321978 0.095852 3.309329 197 191 177
0.377504 0.115440 4.011098 192 186 172
0.367439 0.110589 3.775431 121 115 101
0.460597 0.143358 4.944920 71 65 51
0.430400 0.128806 4.237918 35 29 15
0.437662 0.130250 4.236418 109 103 89
0.521678 0.158351 5.170049 204 198 184
0.823834 0.261167 8.673833 195 189 175
0.499314 0.148206 4.699176 196 190 176
0.527625 0.156684 4.931074 85 79 65
0.887503 0.276676 8.898427 69 63 49
1.265068 0.374539 10.722404 204 198 184
0.517357 0.140396 3.744461 207 201 187
0.549760 0.149688 3.975514 166 160 146
0.403766 0.103565 2.579193 131 125 111
0.408424 0.104491 2.578230 171 165 151
0.440455 0.113709 2.809360 202 196 182
0.914717 0.250744 6.277590 207 201 187
0.090506 0.033229 1.692447 162 158 146
0.208584 0.192867 11.651098 177 173 161
0.144372 0.073116 3.820543 173 167 153
0.225443 0.095719 4.279178 131 125 111
0.239967 0.098607 4.276178 190 184 170
0.235626 0.091260 3.801692 54 48 34
0.242145 0.092556 3.800345 147 141 127
0.334632 0.114186 4.018931 131 125 111
0.355302 0.118296 4.014661 197 191 177
0.425222 0.145166 4.950983 195 189 175
0.288436 0.088792 2.840016 152 146 132
0.375973 0.122406 4.010391 80 74 60
0.433484 0.143566 4.711585 78 72 58
0.389754 0.125146 4.007544 153 147 133
0.379026 0.119771 3.772068 189 183 169
0.457503 0.148342 4.706623 205 199 185
0.832741 0.287787 9.382937 171 165 151
0.567183 0.186359 5.872423 47 41 27
0.405099 0.124955 3.766682 98 92 78
0.431095 0.133366 3.999004 196 190 176
0.457835 0.141924 4.231171 193 187 173
0.485319 0.150630 4.463185 181 175 161
1.129563 0.375980 11.460844 190 184 170
0.261677 0.067262 1.657087 201 195 181
0.569591 0.170628 4.683468 205 199 185
1.006952 0.312698 8.633874 207 201 187
1.095342 0.339998 9.328689 211 205 191
0.333982 0.088122 2.117533 157 151 137
0.592199 0.171881 4.441106 75 69 55
1.418875 0.436744 11.638770 130 124 110
0.535463 0.150874 3.739752 117 111 97
0.738494 0.210693 5.123959 216 210 196
0.545793 0.149686 3.499927 202 196 182
0.522788 0.141871 3.266987 206 200 186
0.499040 0.133907 3.034202 199 193 179
0.504442 0.134981 3.033086 164 158 144
0.782246 0.219392 5.114921 184 178 164
0.607163 0.165130 3.724940 207 201 187
0.644692 0.175834 3.954879 212 206 192
0.871263 0.243575 5.571915 216 210 196
0.699814 0.186793 3.943492 230 224 210
0.103584 0.053712 2.639819 175 171 159
0.153955 0.085535 4.055231 173 169 157
0.151963 0.074235 3.342734 181 177 165
0.156986 0.057061 2.153515 183 177 163
0.245615 0.107393 4.273932 176 170 156
0.190936 0.067445 2.384138 164 158 144
0.271089 0.108823 4.031033 162 156 142
0.184896 0.055341 1.672477 194 188 174
0.331950 0.117290 3.780824 182 176 162
0.440117 0.156968 4.946661 104 98 82
0.364541 0.123770 3.774092 172 165 149
0.439711 0.153253 4.709108 195 189 173
0.395113 0.133482 4.005413 189 183 167
0.563164 0.199606 6.109423 176 170 156
0.390614 0.128953 3.768706 168 160 149
0.415783 0.137592 4.001143 161 152 143
0.274403 0.080406 2.129259 174 168 156
0.463483 0.150711 4.228925 199 193 179
1.062737 0.371624 10.758946 172 166 152
1.186692 0.414441 11.921521 201 195 181
0.640294 0.200403 5.142945 199 193 179
1.411755 0.466458 12.350300 146 140 126
0.507941 0.152281 3.744469 66 60 46
1.224194 0.396456 10.250320 159 153 139
0.495258 0.146125 3.509453 202 196 182
0.475312 0.138524 3.275937 203 197 183
0.481633 0.136147 3.036995 137 131 117
0.592678 0.169128 3.726964 113 107 93
0.674089 0.192584 4.185419 117 111 97
0.681351 0.194028 4.183918 185 179 165
0.720286 0.205404 4.413512 203 197 183
0.759964 0.216927 4.642951 208 202 188
0.703138 0.198360 4.179418 200 194 180
0.939919 0.270879 5.793957 217 211 197
0.691392 0.192390 3.944208 204 198 184
0.710005 0.192456 3.702727 213 207 191
0.137068 0.161937 8.334151 171 167 155
0.143562 0.082685 3.581192 175 171 159
0.211170 0.096127 3.567225 189 183 169
0.226211 0.103145 3.801699 188 182 168
0.241996 0.110310 4.036019 134 128 114
0.271936 0.104181 3.317092 185 179 165
0.338459 0.129489 4.016092 194 188 174
0.300806 0.109922 3.311128 183 177 163
0.372911 0.136339 4.008975 186 180 166
0.329677 0.115662 3.305164 168 162 148
0.386691 0.139079 4.006128 107 101 85
0.428485 0.155443 4.472656 61 55 41
0.407362 0.143189 4.001858 47 38 31
0.469957 0.167716 4.701670 41 32 25
0.341531 0.109964 2.827553 201 195 181
0.892404 0.324196 8.890858 165 159 145
1.182350 0.434197 11.919514 188 182 168
0.237979 0.065213 1.423459 195 189 175
0.263437 0.074302 1.655781 197 191 177
0.734945 0.244564 6.072415 195 189 175
0.475454 0.148673 3.512630 84 78 64
0.531386 0.167848 3.976238 163 157 143
0.639336 0.205419 4.904261 212 206 192
0.519529 0.161463 3.741106 210 204 190
0.317975 0.089172 1.882095 191 185 171
0.268755 0.071332 1.417101 194 188 174
0.593398 0.180177 3.963427 64 58 44
0.428608 0.123250 2.571984 180 174 160
0.578193 0.173127 3.728987 215 209 195
0.584711 0.174423 3.727641 205 199 185
0.830859 0.247526 5.102278 91 85 71
0.643374 0.186087 3.715522 126 120 106
1.353326 0.407784 8.320480 214 208 194
0.140026 0.092887 3.818534 178 174 162
0.162068 0.075171 2.626353 180 174 160
0.197511 0.099897 3.569133 163 157 143
0.211726 0.107143 3.803723 43 37 23
0.226685 0.114537 4.038158 79 73 59
0.222096 0.104785 3.564055 186 180 166
0.247355 0.118647 4.033888 168 162 148
0.365142 0.164164 5.197184 189 183 169
0.316017 0.127878 3.782178 182 176 162
0.350709 0.139196 4.012537 53 47 33
0.364489 0.141936 4.009691 186 180 168
0.225099 0.074444 1.900755 145 139 127
0.378269 0.144675 4.006844 54 48 36
0.419154 0.161644 4.473449 82 76 64
0.434423 0.164680 4.470295 153 144 135
0.405830 0.150155 4.001151 174 165 158
0.412721 0.151525 3.999727 180 171 164
1.139362 0.450689 12.163015 188 182 168
0.433344 0.151206 3.757941 154 148 134
0.562068 0.198898 4.918978 197 191 177
0.614859 0.218233 5.383124 197 191 177
0.612339 0.208893 4.908593 132 126 112
0.571841 0.192001 4.441908 101 95 81
0.554665 0.184167 4.207930 201 195 181
0.511562 0.166758 3.741783 207 201 187
0.543635 0.177554 3.972683 169 163 149
0.498672 0.159775 3.506920 76 70 56
0.381898 0.114459 2.343415 190 184 170
0.696122 0.225551 4.891285 151 145 131
0.598757 0.188514 3.961296 206 200 186
0.612537 0.191253 3.958449 176 170 156
0.649074 0.202938 4.188427 215 209 195
0.656336 0.204381 4.186927 206 200 186
0.633208 0.195363 3.954179 208 202 188
1.101541 0.354775 7.420316 195 189 175
0.729671 0.214542 3.934252 209 203 187
0.880447 0.262199 4.853208 212 206 190
0.142471 0.105064 4.054531 182 178 166
0.218987 0.125090 4.276195 188 182 168
0.238934 0.124243 4.034604 69 63 49
0.266495 0.129723 4.028910 124 118 104
0.342368 0.164058 4.963118 182 176 162
0.307836 0.137943 4.020370 75 69 55
0.275143 0.117006 3.314713 102 96 82
0.342287 0.144792 4.013253 58 52 38
0.340641 0.139653 3.776123 182 176 164
0.220770 0.077321 1.901123 145 138 128
0.390519 0.154382 4.003290 67 60 52
0.724038 0.302503 7.971387 52 43 36
0.399305 0.151316 3.764004 98 89 82
1.035481 0.426986 10.994164 187 181 167
0.431895 0.157796 3.757272 173 167 153
0.879564 0.347862 8.651670 197 191 177
0.497077 0.170756 3.743807 109 103 89
0.553051 0.191509 4.207184 210 204 190
0.510114 0.173348 3.741113 207 201 187
0.542103 0.184521 3.971975 101 95 81
0.497306 0.165989 3.506289 105 99 85
0.267511 0.076989 1.416527 194 188 174
0.521891 0.170877 3.501210 214 208 194
1.526356 0.534208 11.367701 127 121 107
0.480136 0.148138 2.797425 81 75 61
0.666127 0.209179 3.946355 90 84 70
1.226205 0.402346 7.867650 144 138 124
1.403982 0.461754 9.018277 215 209 195
0.180730 0.270885 10.930639 176 172 160
0.163381 0.199771 7.847827 173 169 157
0.283136 0.239196 8.535334 176 170 158
0.155339 0.083664 2.626358 173 167 153
0.213218 0.115991 3.564062 109 103 89
0.251183 0.133950 4.031049 185 179 165
0.275471 0.143984 4.263447 53 47 33
0.278744 0.139429 4.025356 183 177 163
0.299414 0.143539 4.021086 77 71 57
0.306601 0.139763 3.782186 193 187 173
0.382398 0.180858 4.953603 175 169 155
0.296956 0.127436 3.309348 84 78 64
0.337375 0.135472 3.300999 139 132 126
0.554063 0.241014 6.105216 177 170 162
0.402768 0.164088 3.999735 178 169 162
0.278752 0.097792 2.126034 197 191 177
0.697629 0.285173 6.787803 43 37 23
0.436965 0.165683 3.755256 199 193 179
1.235513 0.491010 11.187574 199 193 179
0.297904 0.096394 1.884662 91 85 71
0.544174 0.197408 4.207939 96 90 76
0.551437 0.198852 4.206438 203 197 183
0.483648 0.169759 3.508197 204 198 184
0.769073 0.283763 6.060800 75 69 55
0.495940 0.172203 3.505658 111 105 91
0.528220 0.183826 3.736404 195 189 175
0.375707 0.122273 2.343420 193 187 173
0.631321 0.214735 4.189936 168 162 148
1.412362 0.505353 10.201380 188 182 168
1.518858 0.542141 10.891626 182 176 162
0.643925 0.212036 3.949917 208 202 188
0.632510 0.204562 3.714860 195 189 175
1.223268 0.415707 7.866293 194 188 174
1.860248 0.641247 12.245592 205 199 185
0.751670 0.243868 4.402489 217 211 197
0.106825 0.118116 4.297206 170 166 154
0.089449 0.053089 1.689838 167 163 151
0.125628 0.116257 4.055962 176 172 160
0.220416 0.129506 3.799021 121 115 101
0.428932 0.288512 8.740500 173 167 153
0.269013 0.155961 4.501061 187 181 167
0.477700 0.309403 9.205146 66 60 46
0.273857 0.151326 4.262701 103 97 83
0.232537 0.115123 3.084438 179 173 159
0.290993 0.149136 4.021801 69 63 49
0.298635 0.145058 3.782863 188 182 168
0.372158 0.187663 4.954473 178 172 158
0.281156 0.124790 3.074394 167 159 146
0.331225 0.151537 3.776130 187 179 166
0.370335 0.159313 3.768051 188 181 173
0.341866 0.142458 3.299213 187 180 172
0.436967 0.189354 4.466365 97 90 80
0.353414 0.144754 3.296827 75 66 57
0.284750 0.108712 2.361573 178 170 159
0.421907 0.175165 3.994757 194 188 176
0.632944 0.273099 6.324759 200 194 180
0.422480 0.169681 3.757279 193 187 173
0.435516 0.172273 3.754586 107 101 87
0.535298 0.203307 4.208693 70 64 50
0.469990 0.173529 3.510105 75 69 55
0.525260 0.195714 3.973407 195 189 175
0.513735 0.187824 3.738428 99 93 79
0.263470 0.082091 1.416530 65 59 45
0.526771 0.190416 3.735735 196 190 176
0.506867 0.180861 3.502487 188 182 168
0.539807 0.193008 3.733042 125 119 105
0.718075 0.262037 5.120374 195 189 175
0.754736 0.274924 5.350160 205 199 185
0.707293 0.254296 4.885242 205 199 185
1.496795 0.556803 10.893501 203 197 183
0.635504 0.217633 3.950633 202 196 182
0.920376 0.324650 6.028022 204 198 184
0.734705 0.248551 4.404859 212 206 190
0.330616 0.095441 1.402659 206 200 186
0.108714 0.072244 2.159996 178 174 162
0.172328 0.132813 4.045291 178 174 162
0.447632 0.355274 10.632943 182 176 162
0.397085 0.297303 8.744949 104 98 84
0.232004 0.138688 3.795658 179 173 159
0.267316 0.163679 4.500277 190 184 170
0.245040 0.141280 3.792965 36 30 16
0.261901 0.150622 4.026787 109 103 89
0.193793 0.095150 2.379725 163 157 143
0.290668 0.150352 3.783540 187 181 167
0.271293 0.134520 3.312933 180 174 160
0.288616 0.137964 3.309355 160 154 140
0.193349 0.077091 1.667904 192 184 171
0.388439 0.181771 4.237951 52 52 44
0.412368 0.192519 4.470313 178 174 165
0.385925 0.175281 4.001166 191 187 176
0.601744 0.290073 6.804236 107 101 89
0.399705 0.178021 3.998319 56 50 38
0.394959 0.171087 3.761996 191 185 171
0.590466 0.269860 6.094652 178 172 160
1.101749 0.527259 12.158947 61 55 43
0.414513 0.174975 3.757956 144 138 124
0.681227 0.305876 6.787816 190 184 170
0.427550 0.177567 3.755263 153 147 133
0.581155 0.232068 4.672749 113 107 93
0.468624 0.179744 3.509474 48 42 28
0.499250 0.191823 3.740451 204 198 184
0.512286 0.194415 3.737758 185 179 165
0.525322 0.197007 3.735065 196 190 176
0.716130 0.270885 5.119475 79 73 59
0.288028 0.089926 1.411041 164 158 144
1.313530 0.455553 7.606414 211 205 189
0.139301 0.127135 3.813840 177 173 161
0.171892 0.133615 3.807107 175 171 159
0.411678 0.340858 9.688801 175 169 155
0.230556 0.145279 3.794989 188 182 168
0.256104 0.163124 4.264209 183 177 163
0.235538 0.127121 3.082212 139 133 119
0.251744 0.130343 3.078864 169 163 149
0.189474 0.079666 1.668233 191 185 173
0.300363 0.140010 3.068821 53 50 41
0.536998 0.270034 6.104176 141 137 125
0.425940 0.203274 4.466374 53 47 33
0.345073 0.155282 3.296834 151 145 129
0.459280 0.216285 4.696736 205 199 183
0.319733 0.137478 2.827570 189 183 167
0.607007 0.290336 6.326963 101 95 81
0.413065 0.181566 3.757286 62 56 42
0.618906 0.286319 6.087255 188 182 168
0.365188 0.152898 3.055429 194 188 174
0.439137 0.186749 3.751900 143 137 123
1.195373 0.560502 11.899398 202 196 182
1.147042 0.506214 10.248639 167 161 147
0.497801 0.198413 3.739782 191 185 171
0.611401 0.246530 4.665311 207 201 187
0.759437 0.301494 5.583727 202 196 182
0.162375 0.145376 4.045298 181 177 165
0.141883 0.100650 2.626369 174 170 158
0.183170 0.135960 3.566615 184 178 164
0.231277 0.159076 4.031065 39 33 19
0.235625 0.153165 3.792973 181 175 161
0.251948 0.163186 4.026795 186 180 166
0.269015 0.173354 4.260463 179 173 159
0.223534 0.130435 3.083889 179 173 159
0.228936 0.131509 3.082773 176 170 156
0.211752 0.114542 2.611935 181 175 161
0.245142 0.134731 3.079425 163 157 143
0.261348 0.137953 3.076077 165 159 145
0.239700 0.120098 2.606162 182 174 163
0.432227 0.232906 5.175522 187 181 167
0.393706 0.204921 4.471898 147 141 129
0.288435 0.136563 2.833288 144 138 126
0.320771 0.149768 3.063802 116 110 98
0.403533 0.193324 3.995481 183 177 163
0.318615 0.142564 2.827053 145 139 125
0.398580 0.185564 3.759310 41 35 23
0.557942 0.271452 5.623940 118 111 101
0.950417 0.471441 9.812352 201 195 183
0.451764 0.202914 3.985517 81 75 61
0.437689 0.193340 3.751231 63 57 41
1.105679 0.536187 10.966247 198 192 176
0.499996 0.212503 3.975553 193 185 172
0.506886 0.213873 3.974130 201 193 180
0.609545 0.261385 4.901698 42 34 21
0.472038 0.193394 3.506941 126 120 106
0.502870 0.206300 3.737766 193 189 177
0.484330 0.195838 3.504402 201 197 185
0.515907 0.208891 3.735073 71 65 51
0.599832 0.245904 4.429317 73 67 53
0.712241 0.288579 5.117677 197 191 177
0.908931 0.368338 6.500208 206 200 184
1.639380 0.682951 12.279160 201 195 179
0.359940 0.116904 1.632547 204 198 182
0.158467 0.159038 4.282220 179 175 163
0.165729 0.160482 4.280720 178 174 162
0.140847 0.105360 2.625890 176 172 160
0.202185 0.160562 4.036051 182 176 162
0.231089 0.173477 4.267218 187 181 167
0.252876 0.177809 4.262717 127 121 107
0.230973 0.151950 3.555827 182 176 162
0.237119 0.153172 3.554557 185 179 165
0.379323 0.274629 6.607982 182 176 162
0.390305 0.276812 6.605713 172 166 152
0.238539 0.139119 3.079986 113 107 93
0.291758 0.178372 4.017547 50 44 30
0.254745 0.142341 3.076639 168 162 148
0.260147 0.143415 3.075523 188 182 168
0.238665 0.124808 2.605683 194 186 173
0.318913 0.176603 3.774799 193 187 173
0.364540 0.185675 3.765373 40 36 24
0.330374 0.157378 3.061015 189 183 169
0.285226 0.126897 2.358926 109 103 91
0.270489 0.116799 2.124832 153 146 138
0.278317 0.118356 2.123215 190 183 173
0.511766 0.243618 4.683513 145 139 125
0.770370 0.381050 7.475754 49 43 27
1.080413 0.543044 10.731646 193 187 171
0.481867 0.209002 3.741136 190 182 169
0.536104 0.234121 4.204209 105 97 84
0.688755 0.307480 5.595506 36 30 16
0.772060 0.345546 6.289712 198 192 178
0.514458 0.215482 3.734403 181 175 161
0.527495 0.218074 3.731710 197 191 177
0.983085 0.365999 5.534703 207 201 185
0.191821 0.180894 4.511334 180 176 164
0.232728 0.166345 3.791634 47 41 27
0.248885 0.177118 4.025379 46 40 26
0.385922 0.302651 7.079153 75 69 55
0.459948 0.362733 8.486360 78 72 58
0.226535 0.142433 3.081663 60 54 40
0.214340 0.124887 2.610016 82 76 62
0.195255 0.105971 2.139792 140 134 120
0.235899 0.136734 2.842646 172 166 152
0.240929 0.137734 2.841606 183 177 163
0.610975 0.377639 7.980994 185 179 167
0.452680 0.263001 5.405779 188 182 170
0.318127 0.168204 3.299826 181 173 162
0.393580 0.205887 3.995488 191 185 171
0.293525 0.140631 2.593658 166 160 144
0.432819 0.221249 4.224466 164 157 147
0.421141 0.211367 3.989795 119 110 105
0.408719 0.201337 3.755278 56 47 42
0.493974 0.248529 4.685999 191 182 175
0.421755 0.203929 3.752585 202 195 185
0.959411 0.507401 9.805681 140 134 120
0.483655 0.231357 4.213964 193 187 171
0.235181 0.091228 1.420295 199 193 179
0.450868 0.202156 3.509488 198 192 178
0.457014 0.203378 3.508218 198 192 178
0.486937 0.216888 3.739120 194 188 174
0.541753 0.242908 4.201962 34 28 14
0.499973 0.219480 3.736427 171 165 151
0.805206 0.370894 6.518371 199 193 179
0.487745 0.209488 3.501870 208 202 188
0.519528 0.223368 3.732387 48 42 28
0.500037 0.211932 3.499330 117 111 97
0.848794 0.326636 4.849784 208 202 186
0.724310 0.271644 3.927167 204 198 182
0.207136 0.152229 3.321896 179 173 159
0.222095 0.163157 3.555834 183 177 163
0.228241 0.164379 3.554564 148 142 128
0.234387 0.165601 3.553294 114 108 94
0.240533 0.166823 3.552025 100 94 80
0.203989 0.127744 2.611462 125 119 105
0.197602 0.118521 2.375753 154 148 134
0.190471 0.109150 2.140199 178 172 158
0.229751 0.140820 2.843168 183 177 163
0.596002 0.396561 8.219151 186 180 168
0.535763 0.344818 7.046456 192 186 174
0.592901 0.380038 7.745736 187 181 169
0.435143 0.261188 5.171018 154 148 136
0.269200 0.140710 2.597991 103 95 84
0.228640 0.108786 1.895286 75 71 59
0.826283 0.498018 9.830776 187 181 165
0.338777 0.170450 3.057674 187 180 172
0.445729 0.231480 4.220719 115 106 101
0.420306 0.210519 3.751915 191 184 174
0.589590 0.307801 5.613169 122 116 104
0.433343 0.213111 3.749222 61 55 41
0.482041 0.238699 4.213218 195 189 175
0.262732 0.107611 1.651215 197 194 179
0.461794 0.210815 3.506317 203 197 183
0.492006 0.224775 3.737104 87 81 67
0.571839 0.264506 4.431696 52 44 31
0.629094 0.291796 4.893924 206 198 185
0.486379 0.215703 3.501238 208 202 188
0.518079 0.229958 3.731718 164 158 144
0.741502 0.338005 5.581787 206 200 186
0.894672 0.392318 6.261229 198 193 174
0.612536 0.256692 3.949233 200 195 176
0.649073 0.271909 4.178713 204 198 182
0.330033 0.257869 5.428404 182 176 162
0.240497 0.164956 3.314146 182 176 162
0.223603 0.144905 2.843690 182 176 162
0.537580 0.374245 7.518283 188 182 168
0.492810 0.331961 6.579641 186 180 168
0.239509 0.131376 2.366459 152 145 135
0.394339 0.245617 4.704201 75 68 58
0.489345 0.306235 5.869439 90 82 71
0.434529 0.261954 4.932872 136 130 118
0.277481 0.147272 2.595588 148 144 132
0.397407 0.221190 3.992650 189 183 167
0.342979 0.176986 3.056003 77 69 67
0.712172 0.408958 7.482216 174 166 163
0.588010 0.325852 5.849056 198 191 183
0.567217 0.305027 5.379407 66 60 48
0.431894 0.219701 3.748553 101 95 81
0.459419 0.233520 3.979839 199 193 179
0.473200 0.236259 3.976992 181 175 161
0.789815 0.416050 7.229204 146 140 126
0.869400 0.456910 7.923681 129 126 111
0.951216 0.498215 8.617698 170 167 152
0.245128 0.099111 1.417408 192 190 175
0.466574 0.218251 3.504416 177 174 159
0.545787 0.259037 4.198970 42 36 22
0.602504 0.287005 4.661199 169 161 148
0.635610 0.301933 4.891333 197 191 177
0.503451 0.225583 3.496798 141 135 121
0.403247 0.172277 2.569607 198 192 178
1.618444 0.680950 9.901699 201 195 179
0.686103 0.270244 3.696039 207 201 185
0.262386 0.184139 3.545683 184 178 164
0.244541 0.163114 3.075535 186 180 166
0.370001 0.266704 5.181874 186 180 166
0.509867 0.381895 7.522154 184 178 164
0.549305 0.407213 7.987842 181 175 161
0.174562 0.088033 1.431570 186 180 168
0.518824 0.366200 7.046469 113 106 96
0.618149 0.438378 8.447455 47 40 30
0.871656 0.628594 12.185763 110 101 92
0.400566 0.255304 4.701725 172 164 153
0.424288 0.268759 4.933742 187 179 168
0.395876 0.228157 3.991942 194 188 174
0.420714 0.241833 4.223728 187 181 169
0.336376 0.181373 3.056564 168 161 153
0.622161 0.369269 6.551287 179 174 170
0.690336 0.409039 7.247956 185 180 174
0.516451 0.287083 4.914703 190 186 175
0.464288 0.250497 4.214727 111 104 94
0.512655 0.277590 4.678570 39 33 21
0.436964 0.227587 3.746537 151 145 133
1.231450 0.708868 12.348355 190 184 172
0.450000 0.230179 3.743844 167 161 149
1.029572 0.572608 9.783968 56 50 38
1.193929 0.648978 10.934602 60 58 43
0.741407 0.384239 6.289736 187 188 172
0.465208 0.224465 3.503785 189 187 172
0.495627 0.239251 3.734418 85 82 67
0.477501 0.226909 3.501245 45 39 25
0.508664 0.241843 3.731725 195 189 175
0.489793 0.229353 3.498706 195 189 175
0.521700 0.244435 3.729032 138 132 118
0.534736 0.247027 3.726339 201 195 181
0.435710 0.174908 2.325292 198 192 176
0.356418 0.132928 1.630919 209 203 187
0.224151 0.283463 6.158151 180 176 164
0.194528 0.195395 4.032512 179 173 159
0.215571 0.217840 4.501889 178 174 162
0.232157 0.175484 3.314152 182 176 162
0.277211 0.211834 4.015431 182 176 162
0.183777 0.111079 1.902974 184 178 164
0.703280 0.597867 11.743863 183 177 163
0.279458 0.194019 3.541243 182 176 162
0.559211 0.441390 8.457555 186 178 165
0.425760 0.314416 5.879641 185 179 167
0.476945 0.351986 6.579653 102 95 85
0.728393 0.557205 10.554365 50 43 33
0.484394 0.344336 6.341253 137 128 119
0.554560 0.394810 7.274206 183 174 165
0.337742 0.214738 3.766065 192 182 172
0.344261 0.216034 3.764718 192 182 172
0.334774 0.205017 3.529816 185 177 164
0.471938 0.305336 5.396377 168 160 149
0.497809 0.319611 5.627895 174 167 157
0.359358 0.209905 3.524737 185 179 167
0.608737 0.378189 6.552428 188 184 173
0.383943 0.214793 3.519659 190 187 178
0.415961 0.230290 3.749907 179 175 164
0.442576 0.244713 3.981270 184 180 169
0.469936 0.259283 4.212481 159 152 142
0.602249 0.340376 5.606320 31 23 12
0.972377 0.569191 9.556515 148 140 129
1.247226 0.733409 12.342081 187 179 168
0.389196 0.197576 3.044849 113 107 95
0.749659 0.397077 6.286454 194 195 179
0.469989 0.231901 3.501884 189 187 172
0.881228 0.459760 7.206724 186 180 166
0.520251 0.251025 3.728362 192 186 172
0.716853 0.308376 4.161473 197 191 175
0.179217 0.199622 4.034651 174 170 158
0.225485 0.199297 3.788286 178 174 162
0.542150 0.452728 8.459005 182 176 162
0.400754 0.310333 5.646533 182 174 163
0.436885 0.336564 6.112683 133 125 114
0.803071 0.656981 12.194013 50 41 32
0.513612 0.389913 7.044060 141 132 125
0.380995 0.268310 4.703388 188 179 170
0.329776 0.220033 3.766742 186 176 167
0.405014 0.273086 4.698426 94 84 72
0.340581 0.203134 3.290896 180 176 165
0.320850 0.180164 2.821359 191 189 177
0.666059 0.420223 7.012568 158 156 144
0.253827 0.128744 1.887977 164 162 150
0.532369 0.317454 5.145731 186 182 171
0.401015 0.224673 3.515218 185 181 170
0.427548 0.239472 3.746544 192 185 175
0.392548 0.213466 3.280161 151 142 133
0.920171 0.546934 8.854528 183 173 164
0.737998 0.425003 6.760900 195 189 177
0.393398 0.204112 3.043179 170 166 154
0.699830 0.379320 5.821557 123 125 111
0.577256 0.288285 4.189231 94 88 74
0.538357 0.261504 3.723653 200 194 178
0.145694 0.130815 2.383291 176 172 160
0.501573 0.429642 7.755058 184 178 162
0.192828 0.120354 1.900052 164 160 148
0.417633 0.323708 5.641635 127 118 111
0.524985 0.414465 7.276719 191 181 172
0.321809 0.225327 3.767419 171 161 152
0.410324 0.292506 4.932891 50 42 29
0.367436 0.234399 3.757993 28 21 11
0.252658 0.142166 2.124443 184 180 169
0.319732 0.185250 2.820842 103 99 88
0.379717 0.217008 3.281953 199 192 182
0.791577 0.497218 7.931901 191 182 173
0.432618 0.247358 3.744528 191 182 173
0.670668 0.403766 6.299618 65 56 47
0.574177 0.335000 5.135794 70 61 52
0.626512 0.365238 5.598485 188 180 169
0.458691 0.252542 3.739142 197 189 178
0.645501 0.369014 5.594563 91 85 73
0.323108 0.156173 2.109890 190 188 173
0.497800 0.260318 3.731063 159 156 141
0.510836 0.262910 3.728370 193 187 173
0.523872 0.265502 3.725677 195 189 177
0.536909 0.268094 3.722984 192 186 172
0.210915 0.230775 4.262750 176 172 160
0.127310 0.090447 1.439667 178 174 162
0.263921 0.251622 4.488497 178 174 162
0.211751 0.158780 2.605705 183 177 163
0.216409 0.159706 2.604742 189 183 169
0.209031 0.147930 2.369570 174 171 156
0.250543 0.187110 3.071083 170 167 152
0.268726 0.201034 3.304023 90 91 77
0.300806 0.228029 3.770789 60 56 45
0.469623 0.385299 6.576269 175 166 159
0.605678 0.505128 8.678428 179 169 160
0.834044 0.705163 12.181695 82 74 63
0.330676 0.223660 3.527922 99 91 80
0.365987 0.240989 3.757324 92 86 74
0.637393 0.439273 7.015003 178 174 163
0.465506 0.302011 4.683550 68 64 53
0.398578 0.247469 3.750591 70 68 56
0.392137 0.235880 3.515225 49 45 34
0.418133 0.251357 3.746551 70 63 53
0.384208 0.223994 3.280167 181 174 164
0.575325 0.354771 5.370952 200 191 182
0.626379 0.385539 5.833798 171 162 153
1.191027 0.765831 11.871254 39 30 21
0.450724 0.257837 3.739819 174 166 155
0.598483 0.349067 5.129472 144 138 126
0.294755 0.144357 1.878469 23 26 9
0.609543 0.340957 4.890491 195 193 178
0.301838 0.145765 1.877006 197 191 175
0.509387 0.269500 3.727700 183 177 163
0.719347 0.393715 5.577897 198 192 178
0.522424 0.272092 3.725007 197 191 179
0.535460 0.274684 3.722314 145 139 125
0.776019 0.394674 5.329493 201 196 177
0.581087 0.283756 3.712889 200 195 176
0.558083 0.268874 3.480945 198 193 174
0.194095 0.202990 3.555223 176 172 160
0.200241 0.204212 3.553954 175 171 159
0.338126 0.402847 7.311723 177 173 161
0.240693 0.222956 3.782238 175 169 155
0.354358 0.320464 5.415243 157 151 137
0.243940 0.191498 3.071644 95 92 77
0.323299 0.271484 4.475096 45 43 28
0.260146 0.194720 3.068297 119 117 105
0.211780 0.142298 2.131725 193 186 178
0.409093 0.331347 5.403936 162 153 144
0.318912 0.238508 3.766080 106 98 87
0.325430 0.239804 3.764733 107 101 87
0.212505 0.131741 1.894934 106 100 86
0.307861 0.214908 3.295081 109 101 90
0.344984 0.243692 3.760694 128 120 109
0.335456 0.231096 3.526021 128 122 110
0.193835 0.106627 1.425509 162 156 144
0.563160 0.394083 6.082032 182 178 167
0.427169 0.281434 4.216998 156 152 141
0.384625 0.240872 3.515864 160 157 148
0.410166 0.256651 3.747228 177 174 165
0.436451 0.272579 3.978439 30 26 17
0.483619 0.303359 4.441977 121 114 106
0.511765 0.319657 4.672804 198 191 183
0.582420 0.365808 5.368131 190 181 174
0.506522 0.307913 4.437246 62 53 46
0.557411 0.339433 4.900015 64 56 45
0.829779 0.522002 7.683440 198 192 180
0.328084 0.176124 2.344340 111 107 95
0.583822 0.333983 4.657919 185 183 168
0.301051 0.149346 1.876642 197 191 175
0.507939 0.276091 3.727031 155 149 135
0.337024 0.167200 2.105852 194 188 174
0.498407 0.252793 3.255718 198 193 174
0.860079 0.453118 6.020695 196 191 172
0.666842 0.339788 4.404127 195 190 171
1.292716 0.688954 9.244294 198 193 174
0.599193 0.294234 3.708180 198 193 174
0.162002 0.114344 1.668255 181 173 162
0.387718 0.381099 6.353338 135 127 116
0.290225 0.250776 4.007622 65 63 50
0.284872 0.238618 3.772143 118 119 105
0.253544 0.199108 3.068858 159 161 147
0.375833 0.323267 5.172865 174 174 162
0.304427 0.242506 3.768103 175 173 161
0.275152 0.203404 3.064394 174 170 158
0.346382 0.239754 3.522850 177 175 162
0.369608 0.255466 3.754638 185 183 170
0.445934 0.315017 4.685213 181 179 167
0.407359 0.274065 3.983425 190 188 176
0.451385 0.305007 4.447501 142 142 132
0.441810 0.280915 3.976308 43 39 30
0.489557 0.312596 4.439616 186 179 171
1.121202 0.770999 11.406699 197 188 181
0.462481 0.285025 3.972038 185 176 169
0.512460 0.317150 4.434885 26 19 9
0.783092 0.504084 7.218005 155 149 137
0.493454 0.280089 3.729054 196 190 174
0.799591 0.440802 5.795083 190 185 166
1.450447 0.825367 11.102099 195 190 171
0.166096 0.221881 3.795710 170 166 154
0.482598 0.560485 9.407055 183 177 165
0.425942 0.468815 7.763047 181 175 163
0.620218 0.702712 11.743928 125 119 107
0.396404 0.405510 6.586497 38 32 20
0.270387 0.242617 3.774166 100 96 84
0.265116 0.230082 3.538725 162 163 149
0.356388 0.328635 5.175582 182 184 170
0.356085 0.305601 4.702584 172 172 160
0.316014 0.251688 3.764741 145 146 132
0.308139 0.238636 3.529837 158 159 143
0.314286 0.239858 3.528567 167 168 154
0.320432 0.241080 3.527298 165 166 152
0.326578 0.242302 3.526028 169 170 156
0.332724 0.243524 3.524758 177 178 164
0.338870 0.244746 3.523489 177 178 164
0.328391 0.231176 3.289123 157 158 144
0.531002 0.397811 5.849101 72 73 59
0.369601 0.250856 3.517140 185 186 172
0.412718 0.282402 3.981294 183 181 169
0.438466 0.299008 4.212505 165 163 151
0.388039 0.254522 3.513331 74 72 60
1.059460 0.767071 11.180130 46 42 31
0.447169 0.289251 3.974177 62 55 45
0.599083 0.399861 5.598507 189 182 172
1.093640 0.762380 10.936539 194 185 176
0.918536 0.624187 8.843939 91 85 73
0.343323 0.188199 2.339917 198 196 181
0.323543 0.172780 2.107473 188 182 166
0.817456 0.443279 5.553396 195 190 171
0.213232 0.368801 6.386229 173 169 157
0.557932 0.686797 11.280996 179 173 161
0.586573 0.704370 11.511555 147 143 131
0.330031 0.344507 5.416201 37 33 21
0.459735 0.500966 7.990632 109 107 94
0.540954 0.588388 9.392704 167 168 154
0.345693 0.335742 5.176491 175 176 162
0.294053 0.266079 4.004783 173 175 161
0.288493 0.253095 3.769457 111 114 97
0.327918 0.284692 4.234263 122 122 110
0.349796 0.253404 3.520318 78 80 66
0.397406 0.286628 3.983433 72 70 57
0.512481 0.380782 5.378511 175 173 160
0.374381 0.258292 3.515239 182 178 166
0.424967 0.292108 3.977739 185 183 170
0.451376 0.309238 4.208759 161 159 146
0.458638 0.310682 4.207259 111 107 95
0.390623 0.249642 3.275409 172 166 154
0.921572 0.652185 9.077601 194 186 175
1.107680 0.784220 10.930955 194 188 176
1.049358 0.713229 9.760628 92 88 76
0.500759 0.307177 3.962082 169 167 152
0.601366 0.315301 3.704824 199 194 175
0.205588 0.341663 5.676972 175 171 159
0.612802 0.766234 12.212602 65 61 49
0.359526 0.396813 6.118011 86 87 73
0.467677 0.528761 8.223447 168 170 156
0.323746 0.328341 4.943304 173 175 161
0.483228 0.519582 7.983815 168 169 155
0.248497 0.190663 2.594652 166 170 155
0.311554 0.252287 3.527305 159 163 148
0.317700 0.253509 3.526035 157 159 146
0.323846 0.254731 3.524765 144 148 133
0.329992 0.255953 3.523496 145 149 134
0.336138 0.257175 3.522226 148 150 136
0.342284 0.258397 3.520956 164 165 151
0.427975 0.312249 4.212514 118 112 98
0.453930 0.329681 4.443572 175 169 155
0.385307 0.266950 3.512069 175 172 157
0.410890 0.284309 3.743204 186 183 168
0.395114 0.256629 3.273623 192 184 171
0.422184 0.274282 3.504451 189 183 171
0.478557 0.310034 3.965645 143 135 124
0.507860 0.328132 4.196011 39 33 21
0.483646 0.286502 3.491754 196 188 175
0.983756 0.594555 7.407577 196 191 172
0.336863 0.171417 1.867139 196 191 172
0.390264 0.705008 11.546521 176 172 160
0.183917 0.208066 3.080029 177 173 161
0.213896 0.252020 3.782930 176 172 160
0.186908 0.183333 2.606683 178 170 159
0.317412 0.373916 5.652461 153 147 135
0.276644 0.302489 4.479060 49 47 34
0.336401 0.377691 5.648538 145 147 133
0.626606 0.764662 11.734062 170 174 159
0.355390 0.381467 5.644615 179 183 168
0.399506 0.428231 6.344595 119 120 106
0.318187 0.272755 3.761385 169 171 157
0.339222 0.289602 3.993404 180 182 168
0.704006 0.653408 9.354429 176 180 165
0.350777 0.279235 3.754653 138 139 125
0.357296 0.280531 3.753306 183 181 168
0.429330 0.332846 4.447519 189 181 170
0.365503 0.269499 3.515246 146 136 126
0.215906 0.125777 1.418870 112 109 92
0.218704 0.126333 1.418292 145 142 125
0.518880 0.363315 4.665384 137 130 114
0.526887 0.364907 4.663730 189 183 171
0.426964 0.281719 3.502550 196 188 177
0.455068 0.299971 3.733109 189 181 170
0.483916 0.318371 3.963514 166 160 148
0.410803 0.253177 3.033160 138 132 118
0.416205 0.254251 3.032044 167 160 144
1.145485 0.690528 8.317771 195 190 171
0.614831 0.344399 3.936470 195 190 171
0.472868 0.252852 2.783974 190 185 166
0.258335 0.372189 5.663253 174 170 158
0.274947 0.310207 4.478276 58 56 43
0.365316 0.432630 6.350081 163 165 151
0.353280 0.391066 5.643640 175 179 164
0.420064 0.469629 6.811389 49 51 37
0.348609 0.364024 5.171987 95 96 82
0.529573 0.569743 8.206622 37 35 22
0.620837 0.666230 9.605623 55 51 39
0.265519 0.216935 2.826060 104 100 89
0.314968 0.265937 3.524772 123 119 110
0.321114 0.267159 3.523503 95 95 85
0.345699 0.272047 3.518424 185 183 171
0.346354 0.259120 3.281980 187 179 166
0.352129 0.260268 3.280787 186 178 165
0.376429 0.278157 3.512076 174 166 153
0.382576 0.279379 3.510806 153 145 132
0.388722 0.280601 3.509537 109 101 88
0.401014 0.283045 3.506997 88 80 67
0.407160 0.284267 3.505728 99 91 78
0.434065 0.302673 3.736479 52 44 31
0.440583 0.303969 3.735132 66 58 45
0.490108 0.339929 4.197520 180 172 159
0.409870 0.271749 3.268859 198 188 176
0.549126 0.377778 4.657946 183 173 161
0.466656 0.309153 3.729746 190 182 169
0.473174 0.310449 3.728400 200 192 181
1.062272 0.727884 9.041814 191 185 171
1.226456 0.838869 10.425752 176 170 156
0.940800 0.612334 7.412744 189 183 169
0.982679 0.594547 6.931474 196 191 172
0.141407 0.170667 2.378444 174 170 158
0.154810 0.159883 2.139421 172 168 156
0.340167 0.385029 5.408684 169 171 157
0.311422 0.325516 4.469607 128 130 116
0.226760 0.201087 2.597066 166 167 153
0.514413 0.554168 7.735226 40 38 25
0.221162 0.159625 1.889461 46 46 34
0.743482 0.693858 9.341682 152 152 140
0.841848 0.780663 10.502631 184 182 169
0.513493 0.419490 5.372878 188 180 167
0.391264 0.274143 3.271844 184 176 163
0.418086 0.292925 3.502557 85 77 64
0.445653 0.311855 3.733116 47 39 26
0.582926 0.419845 5.122281 121 113 100
0.480854 0.332304 3.962098 181 171 159
0.291999 0.173710 1.874827 192 186 174
0.271889 0.156262 1.642728 188 184 172
0.419206 0.266249 3.029818 184 178 166
1.107715 0.779726 9.502693 151 147 135
0.479548 0.305145 3.489860 65 62 47
1.257224 0.863250 10.416823 164 160 148
0.778045 0.472089 5.318228 193 188 169
0.845634 0.512426 5.776773 193 188 169
0.376517 0.651040 9.651392 174 170 158
0.327219 0.378239 5.173804 169 171 157
0.509947 0.594516 8.206637 163 167 152
0.434874 0.468854 6.332557 166 167 153
0.484944 0.520335 7.030810 72 70 57
0.324528 0.280809 3.520970 35 35 23
0.207788 0.146862 1.655499 183 184 170
0.562202 0.494169 6.306254 185 179 167
0.401529 0.282277 3.268865 154 146 133
0.429013 0.301583 3.499386 67 59 46
0.435159 0.302805 3.498117 42 34 21
0.463759 0.322334 3.728407 67 59 46
0.470277 0.323630 3.727060 109 103 91
0.476795 0.324926 3.725714 118 112 100
1.366879 0.986368 11.808790 125 122 107
0.435334 0.247472 2.553287 193 188 169
0.344532 0.604435 8.711075 175 171 159
0.292760 0.337917 4.471192 177 178 164
0.562832 0.704777 9.610552 35 36 22
0.650375 0.807591 11.009327 81 85 70
0.594470 0.711067 9.604016 164 166 152
0.229347 0.211432 2.595146 172 173 159
0.346200 0.348543 4.460153 161 159 146
0.229507 0.197229 2.358970 131 129 116
0.205420 0.163971 1.891660 101 101 89
0.419905 0.348962 4.208784 187 185 170
0.280938 0.207455 2.348346 184 182 167
0.359827 0.280078 3.276622 180 177 162
0.365601 0.281227 3.275429 186 180 166
0.417568 0.291559 3.264694 145 139 125
1.323458 0.998354 11.814855 153 151 139
0.397976 0.259194 2.796455 172 170 157
0.899384 0.572406 6.235023 195 190 171
0.199452 0.327422 4.489333 173 169 157
0.285806 0.359218 4.707582 99 97 84
0.298698 0.347154 4.468831 178 179 165
0.271834 0.297931 3.766117 160 161 147
0.297907 0.303115 3.760731 119 120 104
0.197549 0.166143 1.892759 169 167 154
0.327943 0.294460 3.518438 173 177 162
0.666951 0.654408 8.170165 176 180 165
0.463336 0.423770 5.143084 178 180 166
0.370966 0.303014 3.509551 178 176 163
0.364318 0.287065 3.274836 183 179 167
0.614064 0.380602 3.931507 192 187 168
0.442579 0.258743 2.550405 193 188 169
0.264603 0.438551 5.890935 174 170 158
0.647133 0.875084 11.476696 178 176 163
0.283422 0.307113 3.762754 159 160 146
0.302473 0.325921 3.994851 92 90 77
0.322531 0.314889 3.754675 71 72 58
0.329049 0.316185 3.753329 97 99 85
0.320431 0.299452 3.519076 104 108 93
0.566412 0.558637 6.772719 165 169 154
0.594392 0.579220 7.002971 173 177 162
0.640113 0.618350 7.465591 177 179 165
0.669954 0.639303 7.695460 176 178 164
0.682796 0.641856 7.692807 178 179 165
0.288090 0.172863 1.637496 193 189 177
0.170030 0.183560 2.133368 186 180 168
0.262419 0.309816 3.766124 176 172 160
0.495615 0.664430 8.437497 175 171 159
0.330285 0.384959 4.696014 171 169 156
0.188891 0.171897 1.893495 181 177 165
0.295010 0.316296 3.759392 174 170 158
0.301528 0.317592 3.758045 157 153 141
0.314564 0.320184 3.755352 129 127 114
0.764700 0.887468 10.977661 115 116 102
0.826798 0.946052 11.672765 88 90 76
0.518940 0.499531 5.836928 72 74 60
0.591649 0.560224 6.529840 172 173 159
0.620662 0.581405 6.759824 180 181 167
0.668823 0.621806 7.221830 174 175 161
0.425373 0.342215 3.732461 186 182 170
0.291361 0.207683 2.108304 184 181 166
0.590703 0.467561 5.114172 192 186 172
0.431041 0.312517 3.259336 188 184 172
0.440214 0.298928 3.021464 185 181 169
0.424802 0.280452 2.788670 194 188 172
0.263071 0.364239 4.472787 175 169 157
0.258069 0.331634 4.001976 111 105 93
0.590681 0.887723 11.246848 34 28 16
