ply
format ascii 1.0
element vertex 251
property float x
property float y
property float z
property uchar red
property uchar green
property uchar blue
end_header
-0.369246 -0.250714 1.561242 135 130 98
-0.715366 -0.688668 2.968060 136 131 99
-0.710989 -0.687412 2.968245 136 131 99
-0.706613 -0.686156 2.968430 135 130 98
-0.800657 -0.826018 3.438270 137 132 100
-0.795526 -0.824545 3.438486 136 131 101
-0.790395 -0.823072 3.438703 138 133 101
-0.348113 -0.244648 1.562134 139 134 102
-0.882780 -0.962459 3.908613 137 132 102
-0.930407 -1.032563 4.143508 139 134 104
-1.016379 -1.170109 4.613689 139 135 106
-0.662421 -0.613191 2.735352 137 132 102
-0.716564 -0.684803 2.970156 137 132 102
-0.760444 -0.753470 3.205394 137 132 102
-0.846924 -0.890435 3.675923 141 134 105
-0.841415 -0.888854 3.676156 141 134 105
-1.923303 -2.320822 8.372283 141 134 105
-0.884391 -0.957261 3.911431 138 133 103
-0.932121 -1.027032 4.146507 140 135 105
-1.384040 -1.484978 5.554148 139 134 104
-0.667515 -0.610807 2.737098 139 134 104
-1.183725 -1.260355 4.850780 140 135 105
-1.234199 -1.330551 5.085924 139 134 104
-1.283918 -1.400531 5.321101 139 134 104
-1.332883 -1.470294 5.556308 139 134 104
-0.700255 -0.675913 2.972991 139 134 104
-0.747484 -0.745177 3.208272 139 134 104
-0.798335 -0.815482 3.443400 140 135 105
-1.926876 -2.309294 8.378533 142 137 107
-0.880117 -0.950373 3.914498 142 139 108
-0.620373 -0.538083 2.503589 141 137 108
-1.088972 -1.115354 4.383486 142 138 109
-1.185749 -1.253824 4.854321 143 139 110
-1.236326 -1.323687 5.089646 142 138 109
-1.286149 -1.393334 5.325003 142 138 109
-1.335217 -1.462764 5.560391 141 137 108
-1.383530 -1.531978 5.795812 141 137 108
-1.431089 -1.600975 6.031264 142 138 109
-1.533979 -1.741199 6.501840 141 137 108
-0.799739 -0.810951 3.445857 140 136 107
-0.794608 -0.809478 3.446074 141 137 108
-1.833595 -2.159274 7.913952 143 139 110
-1.930449 -2.297766 8.384783 143 139 110
-2.079993 -2.506728 9.090850 141 137 108
-0.827906 -0.874381 3.682129 143 139 110
-2.425736 -2.993389 10.738475 142 141 111
-1.345422 -1.402511 5.326496 143 142 112
-1.397234 -1.472366 5.561954 144 143 113
-1.507875 -1.614090 6.032573 143 142 112
-1.557801 -1.683403 6.268110 142 141 111
-1.606972 -1.752500 6.503679 145 141 112
-1.187773 -1.247294 4.857862 144 140 111
-1.238454 -1.316824 5.093367 144 140 111
-1.288379 -1.386137 5.328905 144 140 111
-1.337551 -1.455234 5.564474 144 140 111
-2.183169 -2.522702 9.093450 143 139 110
-2.338682 -2.732289 9.799820 144 140 111
-1.536726 -1.732337 6.506646 143 139 110
-1.582502 -1.800459 6.742358 142 141 111
-0.740579 -0.734052 3.213226 143 142 112
-1.781905 -2.077626 7.684520 146 142 113
-1.879342 -2.215561 8.155697 146 142 113
-2.029574 -2.423631 8.862290 142 141 111
-0.883339 -0.939978 3.920135 144 143 113
-2.323246 -2.837824 10.275763 146 145 115
-2.519857 -3.114190 11.218043 144 145 114
-3.221336 -3.626355 12.624026 147 146 118
-1.560445 -1.674874 6.272735 146 145 117
-1.609719 -1.743637 6.508484 146 145 117
-0.662801 -0.597914 2.743181 145 144 116
-0.658801 -0.596766 2.743349 145 144 116
-1.868617 -2.091051 7.686705 145 144 116
-1.971543 -2.229835 8.158020 144 143 115
-2.130006 -2.439180 8.864820 146 145 117
-2.286205 -2.647876 9.571716 145 144 116
-2.440142 -2.855921 10.278708 145 144 116
-2.647729 -3.133987 11.221264 145 144 116
-2.907835 -3.481748 12.399434 145 144 116
-0.792286 -0.798942 3.451205 146 145 117
-1.828029 -2.134021 7.926249 146 145 117
-1.576529 -1.843350 6.985547 148 147 119
-2.924044 -3.250651 11.456233 152 151 123
-3.206924 -3.603135 12.634366 151 150 122
-1.098077 -1.153067 4.630886 152 151 123
-0.696294 -0.657939 2.981743 150 149 121
-0.691917 -0.656683 2.981928 149 148 120
-2.325371 -2.753264 10.053419 149 148 120
-0.826921 -0.858206 3.690274 150 149 121
-1.958593 -2.093948 7.694598 153 152 124
-0.560446 -0.453053 2.275024 155 154 126
-0.617095 -0.523208 2.510833 153 152 124
-0.947028 -0.941278 3.926104 156 152 125
-1.714461 -1.916083 7.228506 158 154 127
-0.744482 -0.721456 3.220055 154 153 125
-0.739729 -0.720092 3.220256 156 152 125
-2.329666 -2.739404 10.060934 154 150 123
-1.536598 -1.586632 6.049565 159 158 130
-1.648065 -1.725691 6.521629 161 160 132
-1.698027 -1.793563 6.757905 161 160 132
-1.866473 -2.002509 7.465948 163 162 134
-2.124279 -2.344167 8.646990 165 161 134
-2.542836 -2.892563 10.536400 165 161 134
-2.868261 -3.307162 11.952972 168 164 137
-1.025019 -1.065067 4.402468 160 159 131
-1.963115 -2.297907 8.653795 156 152 125
-1.599993 -1.649072 6.290009 180 176 149
-1.650812 -1.716828 6.526434 179 175 148
-1.760977 -1.854787 6.998923 182 178 151
-1.809910 -1.922002 7.235427 181 177 150
-1.917434 -2.059203 7.708028 183 179 152
-2.023449 -2.195971 8.180692 182 178 151
-2.186546 -2.402293 8.889517 182 178 151
-2.289166 -2.538087 9.362325 183 179 152
-2.505950 -2.812988 10.307453 178 174 147
-1.110856 -1.136489 4.640670 177 173 146
-2.930465 -3.360190 12.198091 174 170 143
-3.024786 -3.493602 12.671250 177 173 146
-1.306588 -1.405347 5.586687 177 173 146
-1.353635 -1.472020 5.823271 170 166 139
-1.399928 -1.538477 6.059887 166 162 135
-1.445466 -1.604717 6.296534 161 160 132
-0.777380 -0.774924 3.461899 161 160 132
-0.772249 -0.773451 3.462116 161 159 134
-0.820427 -0.840449 3.698652 161 160 132
-2.699875 -2.906002 10.545901 218 214 187
-0.921085 -0.864044 3.697103 217 213 184
-0.845489 -0.789539 3.461539 214 208 182
-2.394470 -2.659920 9.842530 217 211 185
-2.724529 -3.071496 11.261126 217 211 185
-2.992875 -3.412552 12.443573 216 210 184
-1.553207 -1.679160 6.535477 210 204 178
-1.656034 -1.814288 7.008646 199 195 168
-1.477083 -1.604504 6.299936 198 194 167
-1.523102 -1.670519 6.536748 187 183 156
-1.503031 -1.664758 6.537595 173 172 144
-2.460133 -2.611595 9.608328 227 222 193
-2.687929 -2.886754 10.554471 226 221 192
-0.440141 -0.301151 1.808588 223 218 189
-0.841762 -0.783535 3.464213 227 222 193
-2.409624 -2.701983 10.088342 228 223 194
-2.620067 -2.972161 11.035218 215 211 184
-1.648197 -1.801662 7.014268 201 197 170
-0.407765 -0.291858 1.809955 193 189 162
-0.405275 -0.291143 1.810061 173 172 144
-1.322896 -1.446071 5.833302 170 169 141
-0.505590 -0.424824 2.283706 166 165 137
-2.403058 -2.528764 9.378939 207 203 178
-0.443313 -0.299667 1.809676 207 203 176
-2.796802 -3.006347 11.036191 201 197 170
-3.019730 -3.278658 11.983280 201 197 170
-0.611186 -0.504094 2.519964 210 206 181
-2.184077 -2.361747 8.909935 213 209 184
-0.716612 -0.638516 2.993763 203 199 174
-0.712235 -0.637260 2.993948 202 198 173
-0.478291 -0.361787 2.047324 212 208 183
-3.041080 -3.441027 12.699755 210 206 181
-0.585830 -0.496816 2.521034 201 197 170
-0.525948 -0.427547 2.284437 198 194 167
-1.463054 -1.581900 6.310000 212 208 181
-1.839295 -2.054459 7.967992 190 186 159
-1.991250 -2.254318 8.678952 172 171 143
-1.107837 -1.167456 4.890247 170 169 141
-1.154439 -1.232914 5.127404 165 164 134
-0.717712 -0.690912 3.232842 169 168 140
-1.549300 -1.545650 6.071784 158 156 135
-2.636043 -2.788506 10.333484 161 159 136
-2.801511 -2.991154 11.044428 161 159 136
-3.084987 -3.331111 12.229011 152 150 127
-1.870728 -1.948219 7.494074 160 158 135
-1.977946 -2.082430 7.968168 165 163 142
-2.024652 -2.147554 8.205506 161 159 138
-2.129230 -2.281007 8.679711 165 163 142
-0.426562 -0.292463 1.811604 158 156 135
-2.565348 -2.819931 10.575780 154 152 131
-0.651561 -0.563917 2.759345 164 162 141
-1.390094 -1.448234 5.839196 164 162 141
-1.437931 -1.513683 6.076487 161 157 132
-0.526836 -0.424681 2.285991 158 154 129
-0.523591 -0.423750 2.286128 162 157 135
-1.076436 -1.099614 4.655888 200 195 173
-2.049781 -2.309919 8.922377 183 179 154
-1.491201 -1.632409 6.552858 172 168 141
-1.858694 -1.882307 7.260748 95 92 75
-1.969514 -2.016827 7.735060 94 91 74
-2.078825 -2.150913 8.209435 95 92 75
-2.246866 -2.353212 8.920825 90 89 69
-2.412644 -2.554861 9.632312 97 94 75
-2.576158 -2.755860 10.343894 99 96 79
-2.796516 -3.024531 11.292571 99 96 79
-3.013857 -3.292336 12.241375 102 99 82
-2.294534 -2.469604 9.397804 104 101 84
-2.511874 -2.737408 10.346608 106 103 86
-2.668598 -2.936459 11.058477 103 100 83
-1.392531 -1.440371 5.843460 101 98 81
-0.530970 -0.422747 2.287408 103 98 78
-0.527725 -0.421815 2.287545 96 91 71
-1.926715 -2.107251 8.215858 105 100 80
-0.465523 -0.352606 2.050676 139 134 114
-0.402339 -0.283115 1.813848 183 179 154
-0.454052 -0.349313 2.051160 172 168 143
-0.811462 -0.755099 3.475557 50 44 28
-2.098762 -2.297421 8.933851 55 49 33
-2.364032 -2.628524 10.121052 78 72 56
-2.057340 -2.285531 8.935600 209 204 184
-1.206978 -1.276563 5.376300 181 177 152
-1.618498 -1.589366 6.322381 97 91 75
-1.731240 -1.722985 6.797351 100 94 80
-1.781650 -1.788084 7.035088 103 97 83
-1.891752 -1.920946 7.510170 108 102 90
-2.000344 -2.053375 7.985315 105 99 85
-2.107428 -2.185371 8.460525 104 98 84
-2.272316 -2.384588 9.173159 104 98 84
-2.434941 -2.583155 9.885888 101 95 81
-2.712421 -2.915949 11.073498 101 95 81
-2.986129 -3.247660 12.261268 101 95 81
-1.397405 -1.424645 5.851986 96 90 76
-1.096233 -1.085050 4.665376 52 46 32
-1.145511 -1.149824 4.903161 34 28 14
-2.685883 -3.009590 11.554350 82 76 62
-0.398722 -0.277286 1.816444 186 181 159
-1.991225 -1.988663 7.751681 151 144 126
-2.101910 -2.120967 8.227108 152 145 127
-2.272012 -2.320592 8.940077 155 148 132
-2.439851 -2.519568 9.653141 155 146 131
-2.605426 -2.717894 10.366301 150 141 126
-2.828532 -2.983000 11.317082 153 146 130
-3.048621 -3.247239 12.267990 156 149 133
-0.364286 -0.214741 1.579069 143 136 120
-1.733861 -1.814257 7.282448 130 125 105
-1.836247 -1.944178 7.758225 107 102 82
-2.049922 -2.206577 8.709405 60 55 36
-1.522259 -1.602719 6.571232 51 45 33
-1.898072 -1.900556 7.521225 170 162 143
-0.861856 -0.754759 3.480978 169 162 143
-0.497339 -0.350707 2.054958 165 158 139
-1.378750 -1.352261 5.621271 168 161 142
-0.366978 -0.213481 1.579991 163 156 137
-0.364865 -0.212874 1.580081 162 155 136
-1.794174 -1.870733 7.525613 149 145 120
-2.010149 -2.132341 8.477435 141 136 114
-2.392613 -2.591448 10.142933 106 101 81
-1.366666 -1.398696 5.862017 65 59 43
-1.681083 -1.788368 7.290153 57 51 37
-2.326519 -2.359220 9.191738 171 165 141
-2.084135 -2.190565 8.721132 163 159 134
-2.241654 -2.384401 9.435742 153 149 124
-2.453514 -2.643377 10.388478 141 136 114
-2.887271 -3.164209 12.293526 113 108 88
-2.868182 -3.158730 12.294332 65 59 43
-1.351296 -1.385721 5.867032 49 43 29
-0.618136 -0.531245 2.772524 174 168 152
