ply
format ascii 1.0
element vertex 1206
property float x
property float y
property float z
property uchar red
property uchar green
property uchar blue
end_header
2.421992 -2.747261 5.069014 100 97 88
3.884921 -4.193899 8.397775 147 144 135
0.693417 -0.958508 1.037804 218 215 206
3.180345 -3.374504 6.643236 225 222 213
3.269147 -3.440169 6.817972 225 222 213
3.903438 -4.033027 8.218838 224 221 212
0.948763 -1.165316 1.562444 223 220 211
0.952534 -1.161971 1.562296 222 219 210
2.135647 -2.279063 4.189163 222 219 210
1.134970 -1.289015 1.911579 223 220 211
3.395213 -3.328332 6.813036 223 220 211
3.712694 -4.614577 8.771397 52 54 51
3.726974 -4.601909 8.770838 50 52 49
3.812004 -4.670543 8.945909 56 58 55
3.826541 -4.657647 8.945340 55 57 54
3.841077 -4.644752 8.944771 54 56 53
3.855613 -4.631856 8.944201 57 59 56
0.646241 -0.995944 1.041848 50 52 49
1.374691 -1.790390 2.797330 42 44 41
2.262510 -2.731590 4.903372 46 48 45
1.911942 -2.322251 4.025096 30 35 29
4.060266 -4.594369 9.114590 42 47 40
0.593174 -0.898954 0.865526 200 203 196
0.598666 -0.894082 0.865311 222 223 215
0.601412 -0.891646 0.865204 115 112 103
3.683581 -4.064131 8.058937 94 91 82
4.088193 -4.425526 8.935096 99 96 87
0.688272 -0.958656 1.040203 118 115 106
0.615142 -0.879465 0.864666 188 185 176
2.145676 -2.403034 4.372746 222 219 210
2.306840 -2.548195 4.723236 230 227 218
0.783701 -1.018067 1.214867 225 222 213
0.946072 -1.162157 1.565310 224 221 212
0.949844 -1.158811 1.565163 223 220 211
1.127630 -1.289227 1.915002 222 219 210
4.161330 -4.072507 8.575433 223 220 211
3.306802 -3.245841 6.646488 223 220 211
3.842616 -4.765699 9.133940 67 69 66
3.787097 -4.671261 8.957526 62 64 61
0.638094 -0.998756 1.044365 57 59 56
1.148838 -1.551494 2.274483 49 51 48
1.081272 -1.467743 2.098541 42 44 41
1.158431 -1.542984 2.274108 47 49 46
1.819098 -2.250102 3.855532 41 43 40
1.021762 -1.376846 1.922283 37 42 38
1.759917 -2.158912 3.679261 23 28 22
0.735756 -1.055808 1.219130 35 40 34
0.591215 -0.896653 0.867613 145 148 141
2.002926 -2.374404 4.205510 232 233 225
0.972796 -1.276594 1.745613 156 153 144
3.461835 -3.810283 7.541559 95 92 83
3.474321 -3.799207 7.541070 100 97 88
3.184031 -3.481969 6.838085 108 105 96
0.613182 -0.877165 0.866753 146 143 134
2.140060 -2.396439 4.378729 223 220 211
0.621420 -0.869857 0.866431 225 222 213
2.163676 -2.375487 4.377804 225 222 213
3.664437 -3.774239 7.712215 223 220 211
0.947153 -1.155652 1.568029 223 220 211
2.124780 -2.266303 4.200740 222 219 210
2.760503 -2.851859 5.604552 222 219 210
2.848939 -2.917095 5.779678 222 219 210
4.375148 -4.293270 9.113092 222 219 210
4.230863 -4.133888 8.761566 223 220 211
2.178091 -2.219008 4.198653 223 220 211
0.707362 -1.076204 1.222627 38 40 37
0.710621 -1.073314 1.222499 39 41 38
1.073493 -1.467967 2.102169 33 35 32
0.717138 -1.067532 1.222244 26 28 25
0.720397 -1.064641 1.222117 23 25 22
1.814030 -2.244151 3.860930 30 32 29
0.589256 -0.894353 0.869700 86 89 82
1.923520 -2.290333 4.035419 235 236 228
4.009306 -4.452753 8.959469 228 230 219
0.969923 -1.273220 1.748674 195 192 183
4.157498 -4.464600 9.132443 97 94 85
0.611223 -0.874865 0.868840 122 119 110
0.613969 -0.872428 0.868733 200 197 188
0.692995 -0.945636 1.044414 229 226 217
0.622207 -0.865120 0.868410 225 222 213
0.624953 -0.862684 0.868303 225 222 213
3.655346 -3.763564 7.721900 223 220 211
2.578638 -2.712353 5.261199 223 220 211
2.119347 -2.259922 4.206528 223 220 211
2.126962 -2.253166 4.206230 223 220 211
4.364594 -4.280878 9.124335 223 220 211
4.141319 -4.049010 8.596751 223 220 211
2.563102 -2.582821 5.083032 223 220 211
2.332394 -2.357548 4.555738 222 219 210
0.705037 -1.073475 1.225104 28 30 27
0.645819 -0.983072 1.048459 22 22 20
0.648822 -0.980409 1.048342 33 35 32
2.252656 -2.702207 4.922736 37 39 36
1.837375 -2.212994 3.865217 57 60 53
1.844479 -2.206693 3.864939 212 213 205
0.596284 -0.858450 1.384430 204 205 200
1.621130 -1.844234 4.402872 61 63 52
1.628490 -1.837705 4.402584 41 43 32
0.868395 -1.090791 2.138418 50 52 41
0.615835 -0.841105 1.383665 204 205 197
2.822951 -2.909888 7.796705 228 229 224
3.094843 -3.142423 8.550701 225 226 221
3.564494 -3.554824 9.870436 231 232 227
2.203946 -2.274678 5.909337 226 227 222
0.503889 -0.703546 1.005727 230 231 226
2.076598 -2.032348 5.340842 230 231 226
0.593959 -0.855720 1.386907 214 215 210
0.474471 -0.725606 1.008889 56 57 49
2.321908 -2.510365 6.485651 54 56 45
0.865339 -1.087202 2.141674 51 52 44
2.022126 -2.186021 5.540648 172 173 165
1.478828 -1.605477 3.839787 229 230 225
1.485418 -1.599631 3.839529 229 230 225
1.162898 -1.295459 2.895416 231 232 227
1.564678 -1.647375 4.027774 231 232 227
1.571525 -1.641301 4.027506 231 232 227
3.256404 -3.098038 8.745241 231 232 227
3.135451 -2.969223 8.367280 231 232 227
3.215553 -3.016220 8.555492 230 231 226
3.395461 -3.661269 9.898714 230 230 228
1.533346 -1.782782 4.225549 149 150 145
1.728909 -1.962334 4.792499 38 39 33
3.124458 -3.313280 8.951646 70 71 63
2.187981 -2.378844 6.115276 65 66 58
2.070470 -2.247730 5.736805 112 113 107
2.015779 -2.178567 5.547411 189 190 184
1.960574 -2.109859 5.358036 223 224 219
1.791887 -1.906465 4.790034 228 229 224
1.546099 -1.653787 4.033514 220 221 216
1.093471 -1.231561 2.710486 226 227 222
0.571359 -0.753296 1.198642 230 231 226
3.136410 -3.400111 9.152793 235 234 232
3.087796 -3.325933 8.962973 226 227 222
1.660656 -1.894003 4.609212 183 184 179
3.051925 -3.240452 8.772654 131 132 126
1.675888 -1.880490 4.608615 138 139 133
3.205246 -3.339043 9.150098 186 187 182
3.028027 -3.144348 8.581866 224 225 220
1.698735 -1.860221 4.607721 229 230 225
1.786270 -1.899870 4.796017 228 229 224
3.482682 -3.444833 9.714406 227 228 223
2.975617 -2.956234 8.200472 221 222 217
3.577211 -3.478277 9.902428 225 226 221
1.774894 -1.792658 4.604739 231 232 227
1.248606 -1.321113 3.091558 231 232 227
0.852205 -0.968948 1.956738 232 233 228
1.655222 -1.887622 4.615000 229 230 225
1.913680 -2.126044 5.372525 232 233 228
1.922321 -2.118379 5.372187 230 231 226
2.310301 -2.475752 6.508462 231 232 227
2.510918 -2.648559 7.076341 228 229 224
3.314742 -3.338586 9.347801 228 229 224
3.393270 -3.385848 9.536638 228 229 224
2.177092 -2.243144 5.937945 227 228 223
2.511588 -2.531037 6.884404 228 227 223
2.261185 -2.285469 6.126564 229 228 224
3.581449 -3.452762 9.913093 230 229 225
1.040173 -1.147054 2.528060 228 227 223
1.178080 -1.258567 2.906483 227 228 223
1.450635 -1.484483 3.663456 231 232 227
1.054563 -1.134289 2.527497 234 235 230
3.046266 -3.206484 8.792284 229 229 227
0.540915 -0.767058 1.206428 229 229 227
2.005632 -2.148312 5.567350 227 228 223
2.142148 -2.260305 5.946202 230 231 226
2.087493 -2.192241 5.756244 231 232 227
2.418255 -2.481562 6.703787 230 231 226
2.170378 -2.235261 5.945097 229 228 224
2.374291 -2.404013 6.513410 230 229 225
2.059017 -2.100953 5.565260 231 230 226
1.174292 -1.254119 2.910518 224 223 219
0.779830 -0.904758 1.773370 230 229 225
0.783601 -0.901413 1.773222 230 231 226
1.813851 -2.073016 5.196800 230 229 225
1.945900 -2.188218 5.576202 231 230 226
1.892709 -2.119232 5.385999 231 231 229
3.099411 -3.256018 8.992193 231 231 229
2.242842 -2.389484 6.333722 230 230 228
2.126024 -2.260770 5.953723 229 230 225
2.453566 -2.551063 6.902330 232 233 228
2.464257 -2.541578 6.901912 231 232 227
1.705282 -1.820811 4.624192 230 231 226
1.970479 -2.050239 5.382954 230 229 225
1.979120 -2.042574 5.382616 231 230 226
1.987761 -2.034908 5.382277 233 232 228
2.061566 -2.085606 5.571674 231 230 226
0.631213 -0.798708 1.397377 234 230 227
0.777139 -0.901599 1.776236 225 224 220
0.780910 -0.898254 1.776089 225 224 220
2.590426 -2.761315 7.482221 231 231 229
0.812519 -0.980463 1.970086 233 232 228
0.687096 -0.860137 1.590049 235 234 230
2.770012 -2.717793 7.667664 234 233 229
0.824601 -0.969744 1.969613 235 231 228
0.828629 -0.966171 1.969455 232 228 225
1.110816 -1.179019 2.728303 213 212 208
0.761315 -1.019964 1.975039 236 233 228
0.765343 -1.016391 1.974881 230 229 225
2.374160 -2.590058 6.921094 231 230 228
2.446831 -2.641009 7.110911 231 231 229
2.457779 -2.631297 7.110482 232 232 230
2.881134 -2.948240 8.249876 232 233 228
2.576035 -2.641807 7.298514 230 231 226
1.056683 -1.219611 2.734121 230 231 226
1.061736 -1.215128 2.733924 229 230 225
0.809645 -0.977089 1.973147 228 227 223
0.813673 -0.973516 1.972989 228 227 223
0.817700 -0.969943 1.972832 232 228 225
1.081947 -1.197198 2.733132 229 225 222
0.825755 -0.962797 1.972516 227 223 220
0.829783 -0.959224 1.972359 225 221 218
1.234318 -1.292863 3.112490 224 223 221
1.372556 -1.401067 3.492401 220 219 215
0.453306 -0.712074 1.025801 225 222 217
2.243453 -2.460204 6.548341 231 230 226
1.944651 -2.150070 5.595793 231 231 229
1.146867 -1.362260 3.119988 231 231 229
0.720042 -0.935613 1.786755 228 229 224
0.723813 -0.932268 1.786607 230 231 226
0.727584 -0.928922 1.786459 230 231 226
0.731355 -0.925577 1.786312 227 228 223
1.053078 -1.215378 2.737962 225 226 221
1.058131 -1.210895 2.737764 224 225 220
1.063184 -1.206413 2.737566 223 222 218
0.944058 -1.082008 2.356532 226 222 219
2.931442 -2.770204 8.064199 226 222 219
0.703170 -0.835538 1.594566 226 225 221
1.103606 -1.170553 2.735984 226 225 221
1.242323 -1.498723 3.506399 218 215 210
2.849760 -3.054013 8.462424 231 230 226
0.521198 -0.762472 1.218190 232 232 230
1.142896 -1.357597 3.124218 233 233 231
1.148461 -1.352660 3.124000 231 231 229
2.287085 -2.406526 6.554085 224 225 220
0.724894 -0.925763 1.789326 223 224 219
0.728665 -0.922417 1.789178 223 224 219
0.922658 -1.094315 2.360693 222 223 218
0.927199 -1.090288 2.360516 221 222 217
0.683088 -0.848184 1.597926 225 224 220
0.686603 -0.845066 1.597788 229 225 222
0.690118 -0.841948 1.597650 229 225 222
2.128068 -2.088933 5.788163 225 221 218
2.137222 -2.080813 5.787805 218 214 211
0.700663 -0.832594 1.597238 213 212 208
0.704178 -0.829475 1.597100 211 210 206
2.718321 -2.923301 8.090449 228 227 223
0.764778 -0.999123 1.983750 232 232 230
0.460371 -0.697729 1.029545 233 233 231
1.087857 -1.283951 2.937223 227 228 223
2.279823 -2.397999 6.561821 224 223 219
2.048308 -2.146230 5.797988 222 223 218
0.677066 -0.848358 1.600735 221 220 216
0.680580 -0.845240 1.600597 219 218 214
0.684095 -0.842122 1.600459 218 214 211
0.687610 -0.839003 1.600322 216 212 209
2.056519 -2.024657 5.604442 213 209 206
2.065416 -2.016763 5.604093 210 206 203
2.074314 -2.008870 5.603745 208 204 201
0.833245 -0.938383 1.981069 206 205 200
1.898915 -2.151387 5.617126 224 221 216
1.129389 -1.353210 3.132896 229 228 226
0.708199 -0.929481 1.795501 229 228 224
2.820530 -2.928553 8.288813 229 228 224
2.833016 -2.917476 8.288325 226 225 221
1.970094 -2.088242 5.614339 225 224 220
1.978992 -2.080348 5.613991 225 224 220
2.514119 -2.516912 7.140337 213 212 208
0.802179 -0.960019 1.985234 205 204 200
0.678073 -0.842295 1.603269 210 209 205
0.681588 -0.839177 1.603131 211 207 204
1.912114 -1.911854 5.229785 209 205 202
3.217217 -3.032284 9.046932 209 205 202
0.830372 -0.935009 1.984130 207 204 199
0.626357 -0.883005 1.607867 226 223 216
0.569319 -0.820070 1.416500 217 216 211
0.453707 -0.695564 1.033827 216 215 211
1.928157 -2.112361 5.622495 222 221 217
2.737559 -2.870262 8.107603 220 219 215
2.687955 -2.800733 7.915945 220 219 215
2.762018 -2.848564 8.106646 223 222 218
2.242899 -2.287280 6.384572 202 201 197
0.605164 -0.788271 1.415097 182 181 177
3.217161 -3.125998 9.250425 215 214 210
3.180555 -3.044938 9.058259 209 205 202
3.194066 -3.032952 9.057730 207 203 200
3.530843 -3.301859 10.012543 209 205 202
0.827498 -0.931635 1.987191 208 205 200
0.563736 -0.820231 1.419104 217 214 207
3.102500 -3.320628 9.458781 212 211 206
1.127013 -1.338947 3.141138 210 209 205
2.544651 -2.683939 7.542747 208 207 203
2.556111 -2.673772 7.542298 208 207 203
0.586546 -0.799995 1.418211 212 211 207
0.465478 -0.681084 1.035376 225 224 220
3.040685 -3.035994 8.879839 216 215 211
3.179804 -3.138891 9.261967 194 193 189
3.004006 -2.955375 8.687487 143 142 138
3.017004 -2.943844 8.686979 198 197 193
0.609356 -0.779760 1.417318 209 208 204
1.835936 -1.841614 5.051257 209 205 202
1.216059 -1.259951 3.137652 209 206 199
0.561411 -0.817501 1.421581 208 205 198
2.199879 -2.409039 6.594760 202 201 197
1.062087 -1.275580 2.953779 203 202 198
2.978210 -3.071924 8.891989 206 205 201
0.584221 -0.797265 1.420688 212 208 205
0.463519 -0.678783 1.037463 213 212 208
2.718763 -2.738185 7.932271 201 200 196
2.856235 -2.841790 8.314839 122 121 117
2.805715 -2.773827 8.122842 135 134 130
3.134254 -3.046272 9.079855 156 155 151
2.957210 -2.864992 8.504861 204 203 199
0.997734 -1.107108 2.568349 212 208 205
1.335799 -1.586972 3.917764 205 204 199
0.682352 -0.930226 1.807557 207 206 201
0.686123 -0.926880 1.807409 202 201 197
2.263312 -2.450199 6.793892 202 201 197
2.212975 -2.382451 6.601700 206 205 201
0.697437 -0.916843 1.806966 206 205 201
0.461560 -0.676483 1.039550 212 211 207
2.512086 -2.566715 7.366640 216 215 211
2.523290 -2.556775 7.366202 197 196 192
2.784760 -2.774431 8.132616 114 113 109
2.671344 -2.650239 7.748731 118 117 113
1.043002 -1.172299 2.764251 120 119 115
1.174726 -1.280250 3.147419 179 178 174
2.770086 -2.675045 7.939028 211 207 204
1.952034 -1.939518 5.446940 215 211 208
0.678587 -0.821162 1.613542 209 205 202
1.647512 -1.647651 4.488048 209 206 201
1.590255 -1.586042 4.296127 208 205 200
1.271533 -1.522265 3.730755 204 204 196
1.404355 -1.628487 4.114255 205 204 199
1.411202 -1.622413 4.113987 206 205 201
2.391041 -2.433566 6.990881 190 189 185
0.842141 -1.006979 2.192763 121 120 116
0.599123 -0.774461 1.424876 124 123 119
2.749571 -2.675636 7.948597 124 123 119
0.542231 -0.712905 1.232753 199 195 192
1.818538 -1.821185 5.069792 211 207 204
0.676079 -0.818217 1.616213 215 211 208
1.513906 -1.531301 4.109967 211 208 203
1.391885 -1.415496 3.726043 211 208 203
1.527600 -1.519152 4.109430 212 209 202
1.267014 -1.516958 3.735569 202 199 192
0.446658 -0.681626 1.044155 207 204 199
0.944300 -1.133349 2.580976 211 208 203
0.764801 -0.957639 2.004389 214 211 206
2.569247 -2.594699 7.575346 200 199 194
2.642908 -2.641002 7.767000 131 130 125
0.471371 -0.659702 1.043187 88 87 83
0.977875 -1.103563 2.579661 110 109 105
2.257116 -2.201702 6.420338 207 206 202
2.330777 -2.248005 6.611992 214 210 207
1.323114 -1.355539 3.538835 212 209 204
1.458207 -1.458993 3.922622 213 210 203
1.262494 -1.511652 3.740383 202 199 192
2.745688 -2.866409 8.355731 208 205 200
0.893506 -1.060084 2.391750 217 214 209
2.448495 -2.462422 7.199013 173 170 165
1.213957 -1.332164 3.352833 94 91 86
2.095207 -2.108198 6.044490 78 75 70
0.472158 -0.654965 1.045167 96 95 90
0.979250 -1.095290 2.583119 103 102 98
0.730848 -0.870564 1.813941 174 173 169
0.861731 -0.976999 2.198269 211 210 206
0.806230 -0.914963 2.005716 213 212 207
1.324856 -1.345055 3.543217 217 217 209
3.158861 -3.257778 9.713089 208 205 198
0.697988 -0.894169 1.817989 211 208 203
0.517792 -0.721340 1.240304 214 211 206
0.832972 -0.996212 2.202531 228 225 220
2.389541 -2.387725 7.014423 104 101 96
0.470199 -0.652665 1.047254 69 68 63
0.858675 -0.973410 2.201524 200 199 195
0.862958 -0.969610 2.201357 220 219 215
1.186670 -1.236914 3.163250 223 222 217
1.256377 -1.285970 3.355434 224 224 216
0.639984 -0.746852 1.669093 92 91 87
2.612964 -2.340160 7.931157 90 89 85
2.686483 -2.379427 8.126383 198 197 193
0.720130 -0.780240 1.864059 220 219 215
1.800094 -1.598457 5.189535 227 226 221
2.821662 -2.363993 8.319194 226 225 220
2.706699 -2.257005 7.927488 228 227 222
2.782268 -2.294452 8.122633 229 226 219
1.383846 -1.236311 3.819108 225 222 215
1.003989 -0.946369 2.645359 225 222 215
0.699737 -0.693843 1.666754 229 226 219
0.966864 -0.874816 2.448709 227 224 217
0.831961 -0.987816 2.457314 238 237 232
1.790480 -1.803254 5.592444 232 231 226
2.105606 -2.044249 6.571562 229 228 223
2.606102 -2.433127 8.138295 227 226 221
0.626932 -0.753262 1.672177 179 178 173
3.175394 -2.865085 9.900626 53 52 47
0.637476 -0.743907 1.671764 91 90 86
0.459649 -0.589332 1.083853 168 167 163
2.813665 -2.457212 8.526751 228 227 223
0.966992 -0.972137 2.650319 230 229 224
2.851122 -2.423982 8.525285 222 221 216
0.536279 -0.625461 1.279144 229 228 223
1.739266 -1.536355 4.999576 231 230 225
0.542284 -0.620134 1.278909 229 228 223
1.691341 -1.474760 4.803162 235 232 227
1.635031 -1.420604 4.607075 229 226 221
3.325155 -2.628116 9.696472 230 227 220
0.697230 -0.690898 1.669425 229 226 221
0.646867 -0.834141 1.872449 235 234 229
1.416869 -1.499586 4.422525 231 230 225
1.365355 -1.441551 4.226064 233 232 227
1.431075 -1.486983 4.421969 229 228 223
0.432976 -0.608956 1.086908 230 229 224
0.736679 -0.858200 2.067411 224 223 218
2.777255 -2.574884 8.735796 227 226 221
0.624424 -0.750317 1.674849 211 210 205
0.627939 -0.747199 1.674711 73 72 67
0.634969 -0.740963 1.674436 86 85 81
0.457689 -0.587032 1.085941 128 127 125
0.460435 -0.584596 1.085833 217 216 212
0.714748 -0.773921 1.869791 233 232 227
3.168290 -2.642919 9.514402 230 229 224
1.393810 -1.208840 3.827992 227 224 217
0.049329 -0.945265 1.103938 157 152 146
0.052075 -0.942829 1.103830 161 158 151
0.102485 -1.104822 1.499189 165 162 155
0.105744 -1.101931 1.499061 170 167 160
0.985414 -4.042396 8.616607 176 173 166
0.112261 -1.096150 1.498806 188 185 178
1.060100 -4.182853 9.011015 189 186 179
1.073099 -4.171322 9.010506 197 194 187
0.071296 -0.925777 1.103078 203 200 193
0.150921 -1.165210 1.695959 205 202 195
0.102671 -1.001300 1.300516 212 209 202
0.105673 -0.998637 1.300398 210 207 200
0.135071 -1.075914 1.497913 212 209 202
0.804619 -3.065859 6.438356 214 211 204
0.988629 -1.145547 3.053827 235 234 229
0.647948 -0.827636 1.875167 235 234 229
0.709640 -0.876263 2.071418 225 224 219
2.400823 -2.373306 7.766531 227 226 221
2.361103 -2.201829 7.370753 228 227 222
0.625431 -0.744254 1.677383 111 110 105
0.455730 -0.584731 1.088028 100 99 95
0.458476 -0.582295 1.087920 187 186 182
1.168476 -1.089355 3.245453 231 230 225
0.742227 -0.743997 1.871476 226 223 216
0.617340 -0.648075 1.479033 228 225 218
1.479983 -1.226434 4.027923 231 228 223
0.050116 -0.940529 1.105917 157 154 147
0.100160 -1.102092 1.501666 160 157 150
0.127324 -1.180974 1.699456 170 167 160
0.106677 -1.096311 1.501411 174 171 164
0.109936 -1.093420 1.501283 181 178 171
1.174199 -4.577415 10.010334 186 183 176
1.088756 -4.241295 9.218264 194 191 184
1.102010 -4.229536 9.217745 203 200 193
0.072083 -0.921040 1.105057 205 202 195
0.074829 -0.918604 1.104950 208 205 198
0.129487 -1.076075 1.500518 211 208 201
0.744785 -2.898764 6.050068 210 207 200
0.807388 -3.049186 6.445325 218 215 208
0.813164 -0.984461 2.468022 238 237 232
0.645257 -0.824477 1.878034 243 242 237
2.566631 -2.518297 8.364992 231 230 225
0.889575 -1.019653 2.663884 236 235 230
3.070761 -2.791925 9.737233 229 228 223
3.024739 -2.729773 9.540180 174 173 168
0.453771 -0.582431 1.090115 89 88 84
0.456517 -0.579995 1.090007 164 163 159
0.529853 -0.617916 1.285990 228 227 222
1.164506 -1.084693 3.249683 230 229 224
0.547867 -0.601935 1.285285 229 226 219
0.550869 -0.599272 1.285167 230 227 220
0.553871 -0.596608 1.285050 229 226 219
0.556874 -0.593945 1.284932 230 227 220
2.182758 -1.726064 6.192627 229 226 219
0.562878 -0.588618 1.284697 231 228 223
0.048156 -0.938228 1.108004 157 154 147
0.074369 -1.017577 1.306020 161 158 151
0.124817 -1.178029 1.702128 166 163 156
0.080373 -1.012250 1.305785 171 168 161
0.107611 -1.090690 1.503760 172 169 162
1.212994 -4.727203 10.417353 184 181 174
1.079299 -4.230191 9.228338 189 186 179
1.067549 -4.138011 9.029756 199 196 189
0.070124 -0.918740 1.107144 203 200 193
0.098387 -0.996270 1.305079 204 201 194
0.127162 -1.073345 1.502994 207 204 197
0.159965 -1.146848 1.700752 210 207 200
0.110396 -0.985616 1.304609 218 215 208
0.783360 -2.953683 6.254301 216 213 206
0.305784 -1.530502 2.690251 219 216 209
0.638795 -0.824663 1.881048 234 233 228
0.642566 -0.821318 1.880900 240 239 234
2.442282 -2.405420 7.980730 231 230 225
3.194504 -2.866729 10.140738 214 213 208
2.582884 -2.280686 7.975226 91 90 86
0.454558 -0.577694 1.092094 128 127 123
0.457304 -0.575258 1.091987 219 218 214
2.371408 -2.057882 7.187339 236 235 230
1.160535 -1.080030 3.253913 229 228 223
1.354915 -1.215398 3.843428 229 228 223
0.548727 -0.596757 1.287449 230 227 220
1.129708 -1.004775 3.056078 231 228 221
1.135017 -1.000065 3.055870 230 227 220
0.493001 -0.543590 1.090589 231 228 221
1.405590 -1.170442 3.841444 235 232 227
0.046197 -0.935928 1.110091 155 152 145
0.048943 -0.933492 1.109984 159 156 149
0.098769 -1.093742 1.506492 166 163 156
0.125824 -1.171967 1.704662 170 167 160
0.923071 -3.838162 8.248012 171 168 161
1.178132 -4.634150 10.230319 181 178 171
0.873322 -3.575618 7.652273 187 184 177
1.083097 -4.207328 9.237893 193 190 183
0.068165 -0.916439 1.109231 197 194 187
0.070911 -0.914003 1.109124 204 201 194
0.073657 -0.911567 1.109016 205 202 195
0.131355 -1.064834 1.505216 205 202 195
0.108254 -0.983101 1.306891 209 206 199
0.137872 -1.059052 1.504961 210 207 200
0.141131 -1.056161 1.504833 215 212 205
0.144389 -1.053270 1.504706 216 213 206
0.541936 -0.700592 1.489142 225 224 219
3.050751 -2.768428 9.758550 229 228 223
0.617908 -0.735420 1.685397 225 224 219
0.621423 -0.732302 1.685260 114 113 109
2.817344 -2.464361 8.771542 92 91 87
0.452599 -0.575394 1.094181 103 102 98
0.455345 -0.572958 1.094074 200 199 195
2.486727 -2.144306 7.589110 231 230 225
1.350396 -1.210091 3.848242 232 231 226
1.318031 -1.136577 3.650280 231 228 221
1.066936 -0.950428 2.863193 233 230 223
1.071988 -0.945946 2.862996 232 229 222
0.044238 -0.933627 1.112178 153 150 143
0.046984 -0.931191 1.112071 157 154 147
0.073087 -1.009883 1.310466 163 160 153
0.076089 -1.007220 1.310348 168 165 158
0.102961 -1.085230 1.508713 175 172 165
0.926501 -3.817510 8.256644 176 173 166
0.865328 -3.566232 7.660788 183 180 173
1.122918 -4.356206 9.644872 192 189 182
0.066206 -0.914139 1.111318 196 193 186
0.094103 -0.991240 1.309643 204 201 194
0.122513 -1.067885 1.507948 204 201 194
1.139991 -4.035513 9.045953 204 201 194
0.138806 -1.053431 1.507310 211 208 201
0.115119 -0.972596 1.308820 215 212 205
0.942065 -1.053775 2.871781 235 234 229
0.947117 -1.049293 2.871583 230 229 224
3.026722 -2.769121 9.769758 237 236 231
0.615400 -0.732476 1.688069 233 232 227
0.618915 -0.729358 1.687931 175 174 170
0.450640 -0.573093 1.096268 89 88 84
0.453386 -0.570657 1.096161 165 164 160
2.417443 -2.087444 7.400609 223 222 217
1.012803 -0.991020 2.869012 235 234 229
0.708838 -0.751433 1.883828 235 234 229
1.729184 -1.475833 5.034551 238 235 230
2.746419 -2.202994 8.185397 229 226 219
0.042279 -0.931327 1.114266 149 146 139
0.090861 -1.091173 1.511573 152 149 142
0.070945 -1.007368 1.312748 157 154 147
0.237961 -1.569508 2.703440 161 158 151
0.100636 -1.082500 1.511190 170 167 160
0.989788 -4.048174 8.861745 178 175 168
0.881534 -3.636849 7.867961 181 178 171
1.088640 -4.264896 9.456689 188 185 178
1.176287 -4.491558 10.052071 194 191 184
0.066993 -0.909402 1.113298 201 198 191
0.094963 -0.986061 1.311807 204 201 194
0.097966 -0.983397 1.311690 208 205 198
0.743712 -0.917893 2.284432 237 236 231
2.056050 -1.986059 6.624354 229 228 223
3.119783 -2.868883 10.175590 232 231 226
2.840313 -2.609450 9.188509 236 235 230
2.748194 -2.488227 8.792906 227 226 221
0.616408 -0.726413 1.690603 216 215 211
2.534372 -2.272028 8.002860 64 63 59
0.868309 -0.908831 2.479159 73 72 68
0.812254 -0.857087 2.281749 90 89 85
0.451427 -0.568357 1.098248 130 129 125
1.798551 -1.605663 5.436808 219 218 213
2.788766 -2.350762 8.591714 247 246 241
1.075872 -1.029111 3.069846 242 241 236
0.833673 -0.838086 2.280910 243 242 237
0.837956 -0.834285 2.280743 226 225 220
0.846524 -0.826685 2.280407 239 236 231
2.360463 -1.918948 7.011646 235 232 225
0.476140 -0.546433 1.097281 232 229 222
0.478886 -0.543996 1.097173 228 225 218
1.193146 -1.026545 3.264860 230 227 220
1.198712 -1.021607 3.264642 231 228 221
0.043066 -0.926590 1.116245 148 145 138
0.045812 -0.924154 1.116138 154 151 144
0.118301 -1.163133 1.712676 158 155 148
0.991459 -4.129047 9.070801 164 161 154
0.956937 -3.957482 8.672568 174 171 164
0.176878 -1.313357 2.109967 182 179 172
0.860545 -3.537519 7.677381 190 187 180
1.215157 -4.638264 10.460588 193 190 183
0.065034 -0.907102 1.115385 199 196 189
0.117863 -1.062426 1.512901 201 198 191
0.070526 -0.902230 1.115170 207 204 197
0.073272 -0.899794 1.115063 208 205 198
0.160479 -1.125714 1.711025 217 214 207
0.680317 -0.866738 2.090258 238 237 232
0.740656 -0.914304 2.287688 229 228 223
0.465102 -0.653281 1.299515 238 237 232
0.939908 -1.040827 2.879264 230 229 224
1.932759 -1.878651 6.236861 229 228 223
2.817601 -2.610104 9.199102 236 235 230
0.906040 -0.969776 2.680798 229 228 223
1.801647 -1.691679 5.642618 225 224 220
2.406725 -2.165845 7.616851 104 103 99
2.477829 -2.203861 7.813859 64 63 59
0.744757 -0.809571 2.087735 69 68 64
0.809197 -0.853499 2.285005 95 94 90
0.449468 -0.566056 1.100335 102 101 97
0.452213 -0.563620 1.100228 207 206 201
0.516141 -0.608003 1.297517 240 239 234
2.237501 -1.810494 6.624515 240 237 230
1.119866 -0.982274 3.072011 230 227 220
1.061174 -0.933247 2.874517 229 226 219
1.066226 -0.928764 2.874319 231 228 221
2.772066 -2.043929 8.002132 228 225 218
0.564177 -0.565388 1.295636 228 225 218
2.205650 -1.636559 6.226178 231 228 221
0.635977 -0.602788 1.492618 229 226 219
0.573184 -0.557398 1.295284 225 222 215
0.576186 -0.554735 1.295166 224 221 214
0.579189 -0.552071 1.295049 227 224 217
0.582191 -0.549408 1.294931 227 224 217
0.719346 -0.629923 1.689146 226 223 216
0.655528 -0.585443 1.491852 226 223 214
1.073916 -0.820848 2.674226 223 220 211
0.967699 -0.712886 2.278800 223 220 211
0.041107 -0.924290 1.118332 147 144 137
0.043853 -0.921854 1.118225 152 149 142
0.115793 -1.160188 1.715348 156 153 146
0.958865 -4.038128 8.881614 162 159 152
0.052091 -0.914546 1.117902 173 170 163
1.103517 -4.413393 9.875849 176 173 166
0.852551 -3.528133 7.685897 186 183 176
1.180257 -4.546751 10.272805 189 186 179
0.063075 -0.904801 1.117472 196 193 186
0.090679 -0.981031 1.316371 200 197 190
0.118797 -1.056805 1.515250 203 200 193
0.071312 -0.897493 1.117150 206 203 196
0.074058 -0.895057 1.117042 214 211 204
0.335646 -1.670177 3.106599 213 210 203
0.889904 -3.293559 7.284475 216 213 206
0.395335 -0.610041 1.104465 230 229 224
2.433436 -2.427826 8.223947 228 227 222
1.142657 -1.256402 3.674945 240 239 234
0.784722 -0.868911 2.289099 238 237 232
2.220349 -2.012553 7.032411 159 158 154
2.350219 -2.098778 7.427286 63 62 58
0.745911 -0.802624 2.090639 90 89 85
0.447508 -0.563756 1.102422 95 94 90
0.450254 -0.561320 1.102315 175 174 169
2.343959 -2.003613 7.227551 234 233 228
0.984158 -0.893421 2.681251 233 230 223
0.988954 -0.889166 2.681063 225 222 215
0.993751 -0.884911 2.680876 223 220 213
1.062621 -0.924531 2.878159 225 222 215
0.559033 -0.565537 1.298036 207 204 197
0.562035 -0.562873 1.297918 202 199 192
2.133581 -1.585937 6.035909 197 194 187
0.633652 -0.600058 1.495094 195 192 185
0.636911 -0.597167 1.494967 191 188 181
0.574044 -0.552220 1.297448 195 192 185
0.643428 -0.591385 1.494712 204 201 194
0.646686 -0.588494 1.494584 212 209 202
0.583051 -0.544229 1.297096 216 213 206
0.586053 -0.541566 1.296978 223 220 211
0.589056 -0.538902 1.296861 225 222 213
0.964642 -0.709297 2.282056 222 219 210
0.039148 -0.921989 1.120419 147 142 136
0.041894 -0.919553 1.120312 154 150 141
0.113285 -1.157243 1.718019 153 150 143
0.949774 -4.027453 8.891298 155 152 145
0.050132 -0.912245 1.119989 167 164 157
0.857004 -3.608046 7.894093 171 168 161
0.844557 -3.518746 7.694413 179 176 169
1.169886 -4.534573 10.283853 184 181 174
0.061115 -0.902501 1.119559 189 186 179
0.088537 -0.978515 1.318653 197 194 187
0.066607 -0.897629 1.119344 205 202 195
0.119731 -1.051184 1.517599 208 205 198
0.097544 -0.970525 1.318301 213 210 203
0.077591 -0.887885 1.118914 211 208 201
0.761898 -2.889687 6.296477 212 209 202
1.557475 -1.682194 5.264494 236 235 230
1.175777 -1.318423 3.878266 243 242 237
1.019838 -1.155738 3.283868 243 242 237
2.139857 -2.068614 7.043202 237 236 231
2.838452 -2.552620 9.217694 241 240 235
2.035070 -1.860550 6.446802 204 203 198
2.163805 -1.947027 6.842097 75 74 70
3.219496 -2.716288 10.203614 92 91 87
0.448295 -0.559019 1.104402 130 129 125
3.309385 -2.736886 10.400262 224 223 218
1.858446 -1.615874 5.653047 231 230 225
0.585707 -0.637799 1.499357 217 214 207
0.588966 -0.634908 1.499230 220 217 210
0.592224 -0.632017 1.499102 218 215 208
0.595483 -0.629127 1.498974 217 214 207
0.598741 -0.626236 1.498847 211 208 201
0.602000 -0.623345 1.498719 204 201 194
0.605259 -0.620454 1.498592 196 193 186
0.608517 -0.617563 1.498464 191 188 181
0.611776 -0.614673 1.498337 186 183 176
0.492231 -0.520043 1.102682 147 144 137
0.494976 -0.517607 1.102574 140 137 130
3.430512 -2.428747 9.995185 132 129 122
2.070774 -1.527852 5.844902 131 128 121
0.634586 -0.594437 1.497444 129 126 117
0.571902 -0.549704 1.299730 129 129 121
0.641103 -0.588655 1.497188 133 130 123
1.175999 -0.916861 3.077587 159 156 149
0.580909 -0.541714 1.299378 173 170 161
0.583911 -0.539051 1.299260 206 203 194
0.586914 -0.536387 1.299142 224 221 212
1.343838 -0.968647 3.471351 227 224 215
0.536166 -0.481066 1.100962 221 218 209
2.481332 -1.564996 6.629499 222 219 210
0.892056 -0.667050 2.087866 221 218 209
0.037189 -0.919689 1.122506 143 138 132
0.039935 -0.917253 1.122399 150 146 137
0.042681 -0.914817 1.122291 153 150 143
0.963638 -4.096378 9.100439 153 150 143
0.953425 -4.005474 8.900484 164 161 154
0.872295 -3.677590 8.102240 168 165 158
0.836564 -3.509360 7.702929 176 173 166
1.087573 -4.286324 9.696653 183 180 173
0.955919 -3.803333 8.499676 185 182 175
0.061902 -0.897765 1.121539 194 191 184
0.064648 -0.895328 1.121431 203 200 193
0.067394 -0.892892 1.121324 203 200 193
0.095402 -0.968010 1.320582 210 207 200
0.668450 -2.658855 5.705960 209 206 199
0.651060 -2.574318 5.506285 209 206 199
0.186273 -1.187288 1.918090 218 215 208
1.827928 -1.930133 6.261633 240 239 234
1.170452 -1.213866 3.682756 235 234 229
2.512137 -2.322790 8.238398 237 237 229
1.007630 -1.058419 3.088066 239 239 231
0.544279 -0.669759 1.503365 237 237 229
0.846272 -0.901672 2.493317 219 218 213
1.978489 -1.796565 6.255739 123 122 117
2.166722 -1.929470 6.849435 79 75 72
0.919756 -0.936446 2.690796 70 66 63
2.848403 -2.424333 9.026654 99 98 94
0.446336 -0.556719 1.106489 102 101 97
0.994779 -0.969855 2.888214 185 184 180
0.999831 -0.965373 2.888016 220 219 215
0.576865 -0.640851 1.502089 214 213 208
0.580124 -0.637960 1.501961 204 203 198
0.460066 -0.544539 1.105951 200 197 192
0.462812 -0.542103 1.105844 198 195 190
0.527729 -0.584477 1.303657 182 179 174
0.530731 -0.581814 1.303540 177 174 169
0.533733 -0.579150 1.303422 157 154 149
0.536735 -0.576487 1.303305 145 142 137
0.539738 -0.573823 1.303187 134 131 126
0.542740 -0.571160 1.303070 126 123 118
0.545742 -0.568497 1.302952 105 102 95
1.779824 -1.373022 5.061386 78 75 70
1.787696 -1.366038 5.061078 81 78 71
3.550304 -2.501402 10.401661 81 78 71
3.173617 -2.235788 9.214277 79 76 69
0.569760 -0.547189 1.302012 93 93 85
0.572763 -0.544526 1.301894 105 105 97
0.509493 -0.500690 1.104016 123 120 113
0.578767 -0.539199 1.301659 129 126 117
0.581769 -0.536536 1.301542 146 143 134
0.651812 -0.574362 1.499155 176 173 164
0.655071 -0.571471 1.499027 215 212 203
2.570694 -1.671056 7.033975 222 219 210
0.877100 -0.674395 2.091400 223 220 211
0.949962 -0.709720 2.288903 221 218 209
0.954246 -0.705920 2.288735 221 218 209
1.027877 -0.740563 2.486208 219 216 207
0.037975 -0.914952 1.124486 146 141 135
0.040721 -0.912516 1.124378 150 145 139
0.111785 -1.148236 1.723224 154 149 143
0.944334 -3.994800 8.910169 161 156 150
0.118814 -1.142000 1.722949 166 163 156
0.828570 -3.499973 7.711445 173 170 163
1.077751 -4.274791 9.707116 180 177 170
1.139626 -4.419074 10.105780 187 184 177
0.059943 -0.895464 1.123626 192 189 182
0.087256 -0.970822 1.323099 197 194 187
0.065435 -0.890592 1.123411 207 204 197
0.068181 -0.888156 1.123303 205 202 195
0.645078 -2.567294 5.512658 211 208 201
0.261896 -1.413416 2.519519 213 210 203
0.732715 -0.896148 2.300544 243 240 233
0.749850 -0.880947 2.299873 236 233 226
1.553786 -1.561970 5.075998 236 233 226
0.532179 -0.675701 1.506224 244 241 234
2.966690 -2.698630 9.833710 239 236 229
0.538696 -0.669920 1.505969 238 235 228
0.541955 -0.667029 1.505841 225 222 215
3.184729 -2.803962 10.426802 222 219 212
0.784121 -0.850544 2.298532 218 215 210
2.208449 -1.977069 7.055796 163 160 155
1.981185 -1.780334 6.262522 83 80 75
2.539442 -2.181370 8.045552 92 91 87
0.444377 -0.554419 1.108576 115 114 110
0.510575 -0.595279 1.306527 173 172 168
0.513578 -0.592616 1.306409 172 171 167
0.516580 -0.589952 1.306292 151 150 146
0.519582 -0.587289 1.306174 138 137 135
0.522584 -0.584625 1.306057 122 121 117
0.525587 -0.581962 1.305939 95 94 90
0.528589 -0.579299 1.305822 89 88 84
0.531591 -0.576635 1.305704 81 80 76
0.534593 -0.573972 1.305587 69 68 64
0.537596 -0.571308 1.305469 57 56 52
0.540598 -0.568645 1.305352 44 43 39
1.066965 -0.898385 2.889087 25 24 19
1.072018 -0.893903 2.888889 44 43 38
1.077070 -0.889420 2.888691 45 45 37
1.082123 -0.884938 2.888493 50 50 42
2.393576 -1.713249 6.848006 53 53 45
0.829924 -0.710323 2.096196 53 53 45
0.570621 -0.542011 1.304176 71 71 63
0.573623 -0.539347 1.304059 77 77 69
0.576625 -0.536684 1.303941 97 94 87
0.579627 -0.534020 1.303824 120 117 110
0.582630 -0.531357 1.303706 131 128 121
0.652746 -0.568742 1.501504 162 159 152
2.495365 -1.622948 6.844021 224 221 214
0.534994 -0.474029 1.105028 226 223 216
0.537740 -0.471593 1.104921 226 223 216
1.093803 -0.774989 2.687493 222 219 212
0.036016 -0.912652 1.126573 146 141 135
0.061096 -0.989614 1.326322 150 143 137
0.109277 -1.145291 1.725896 153 148 142
0.958089 -4.063068 9.119689 160 155 149
0.208715 -1.453918 2.524925 165 160 154
0.470199 -2.313262 4.722722 170 167 160
0.831780 -3.480647 7.719522 178 175 168
0.986211 -3.938909 8.917858 186 183 176
1.047208 -4.083217 9.316931 193 190 183
0.060730 -0.890728 1.125605 196 193 186
0.112756 -1.042994 1.525029 201 198 191
0.116015 -1.040104 1.524902 206 203 196
0.094121 -0.960316 1.325029 210 207 200
0.587765 -2.407385 5.119580 213 210 203
1.286195 -1.390941 4.289316 252 249 242
0.457395 -0.638042 1.310807 252 249 242
0.460397 -0.635379 1.310689 244 241 234
0.463399 -0.632715 1.310572 242 239 232
0.466402 -0.630052 1.310454 240 237 230
0.469404 -0.627388 1.310337 237 234 227
2.841277 -2.590843 9.447426 232 229 222
0.420450 -0.571606 1.111523 220 217 210
0.539630 -0.664299 1.508318 212 209 202
0.835253 -0.898093 2.500397 204 201 194
2.436947 -2.155855 7.857412 153 150 145
2.152197 -1.912415 6.864908 84 81 76
2.542800 -2.161160 8.053999 111 110 106
2.855853 -2.379492 9.045395 119 118 114
0.508433 -0.592764 1.308809 115 114 110
0.511436 -0.590100 1.308691 106 105 101
0.514438 -0.587437 1.308574 80 79 75
0.517440 -0.584774 1.308456 68 67 63
0.520442 -0.582110 1.308339 51 50 46
0.523445 -0.579447 1.308221 45 44 39
0.526447 -0.576783 1.308104 36 35 30
0.529449 -0.574120 1.307986 35 34 29
1.033044 -0.921047 2.894114 40 39 34
0.535454 -0.568793 1.307751 52 51 47
0.601543 -0.609374 1.505894 77 76 72
0.668144 -0.649500 1.704017 96 95 91
2.473821 -1.825511 7.253778 155 154 150
2.420145 -1.773919 7.055149 165 164 159
1.073466 -0.885187 2.892532 172 171 166
0.624353 -0.589138 1.505001 171 171 163
2.321176 -1.663296 6.657562 147 147 139
2.461886 -1.736889 7.053514 99 99 91
2.472321 -1.727631 7.053106 41 41 33
1.368432 -1.020354 3.683906 70 70 62
0.511067 -0.491217 1.107975 95 92 85
0.513813 -0.488781 1.107868 118 115 108
0.583490 -0.526178 1.305871 129 126 119
2.064620 -1.394845 5.663954 151 148 141
0.660197 -0.557339 1.503598 219 216 209
0.669973 -0.548667 1.503215 226 223 216
0.673231 -0.545776 1.503088 227 224 217
0.034057 -0.910351 1.128660 144 139 133
0.036803 -0.907915 1.128553 150 143 137
0.106769 -1.142347 1.728568 152 147 141
0.110284 -1.139228 1.728430 159 154 148
0.090880 -1.057609 1.528272 163 158 152
0.812583 -3.481200 7.728476 167 164 157
0.823787 -3.471261 7.728037 176 173 166
1.000809 -4.006053 9.127533 182 179 172
1.013807 -3.994522 9.127025 191 188 181
1.051006 -4.060354 9.326486 196 193 186
0.110431 -1.040264 1.527506 198 195 188
0.064263 -0.883555 1.127478 204 201 194
0.116948 -1.034483 1.527251 204 201 194
0.094981 -0.955137 1.327193 208 205 198
0.097983 -0.952474 1.327075 209 206 199
0.924625 -3.381804 7.724090 214 211 204
0.498202 -0.696259 1.512325 240 237 230
0.501460 -0.693368 1.512198 241 238 231
2.945432 -2.873907 10.256912 246 243 236
0.452251 -0.638190 1.313206 248 245 238
0.455253 -0.635527 1.313089 240 237 230
0.458255 -0.632863 1.312971 233 230 223
2.890585 -2.724896 9.857223 232 229 222
2.791104 -2.615483 9.459282 225 222 215
2.690598 -2.506978 9.061381 218 215 208
2.589067 -2.399383 8.663519 203 200 193
0.423983 -0.564434 1.113395 161 158 151
2.369967 -2.099587 7.667507 135 132 127
2.026817 -1.811007 6.475433 89 86 81
2.748268 -2.356983 8.858205 60 56 53
0.509294 -0.587585 1.310973 42 41 36
3.311547 -2.647947 10.443497 50 49 44
0.515298 -0.582258 1.310738 58 57 52
0.518300 -0.579595 1.310621 76 75 70
0.521303 -0.576932 1.310503 91 91 83
0.524305 -0.574268 1.310386 129 129 121
0.527307 -0.571605 1.310268 156 156 148
0.530309 -0.568941 1.310151 171 170 165
0.533312 -0.566278 1.310033 191 190 185
0.536314 -0.563614 1.309915 199 198 193
0.539316 -0.560951 1.309798 209 208 204
0.676181 -0.637200 1.706276 224 223 219
1.385735 -1.094898 3.888596 218 217 213
0.618769 -0.589299 1.507605 205 204 199
0.622028 -0.586408 1.507478 211 210 205
0.755195 -0.665938 1.904101 207 206 201
0.628545 -0.580627 1.507223 208 207 202
2.333942 -1.637378 6.664327 191 190 185
2.343865 -1.628575 6.663939 108 107 102
0.511854 -0.486481 1.109955 82 79 72
0.514600 -0.484045 1.109848 110 107 100
0.517346 -0.481609 1.109740 126 123 116
0.995459 -0.749291 2.497449 186 183 176
0.661131 -0.551718 1.505947 215 212 205
0.664389 -0.548828 1.505820 217 214 207
0.667648 -0.545937 1.505692 221 218 211
0.670906 -0.543046 1.505564 223 220 213
0.674165 -0.540155 1.505437 223 220 213
1.165863 -0.795787 2.892614 222 219 210
1.101348 -0.754187 2.694221 221 218 209
0.900699 -0.635689 2.099322 222 219 210
1.054481 -0.696931 2.495138 223 220 211
0.632387 -0.478385 1.306154 226 223 214
0.564027 -0.440196 1.107913 223 220 211
0.566773 -0.437760 1.107805 223 220 211
1.516045 -0.880462 3.682577 225 222 213
0.032098 -0.908051 1.130747 142 137 131
0.078779 -1.063552 1.531131 148 143 137
0.059814 -0.981920 1.330768 150 145 139
1.029462 -4.355343 9.940351 155 150 144
0.088555 -1.054879 1.530748 159 156 149
0.160792 -1.286165 2.131237 167 164 157
1.071533 -4.318021 9.938704 170 167 160
1.062051 -4.227976 9.737969 178 175 168
0.957010 -3.828879 8.736553 185 182 175
1.041550 -4.049250 9.336560 196 193 186
0.059558 -0.883691 1.129672 197 194 187
0.111365 -1.034644 1.529855 201 198 191
0.114623 -1.031753 1.529728 203 200 193
0.117882 -1.028862 1.529600 206 203 196
0.095841 -0.949959 1.329357 209 206 199
0.492618 -0.696420 1.514930 247 244 237
0.495877 -0.693529 1.514802 239 236 229
0.444104 -0.641002 1.315723 234 231 224
0.447106 -0.638339 1.315606 242 239 232
0.450109 -0.635675 1.315488 236 233 226
0.453111 -0.633012 1.315371 221 218 211
0.456113 -0.630348 1.315253 210 207 200
0.459115 -0.627685 1.315136 196 193 186
2.724896 -2.555892 9.270660 188 185 178
2.624499 -2.448044 8.872379 166 163 156
0.596346 -0.702856 1.711975 169 166 159
1.300224 -1.259899 4.097687 157 154 147
3.065413 -2.647633 10.061752 143 140 135
0.606891 -0.693501 1.711562 106 103 98
0.551273 -0.644385 1.512634 61 57 54
0.554531 -0.641494 1.512506 56 55 51
0.557790 -0.638604 1.512378 68 67 65
0.561049 -0.635713 1.512251 89 88 84
0.504149 -0.587734 1.313373 109 108 103
0.507152 -0.585070 1.313255 136 135 130
0.510154 -0.582407 1.313138 166 166 158
0.513156 -0.579743 1.313020 183 183 173
0.577341 -0.621259 1.511613 179 179 169
0.519161 -0.574416 1.312785 197 197 187
0.522163 -0.571753 1.312667 205 205 195
0.525165 -0.569090 1.312550 212 212 202
0.528167 -0.566426 1.312432 214 214 206
0.531170 -0.563763 1.312315 216 215 210
0.596893 -0.603914 1.510848 218 217 212
0.600152 -0.601023 1.510720 223 222 218
0.613186 -0.589460 1.510210 223 222 218
2.222914 -1.622826 6.474833 221 220 216
1.780974 -1.325690 5.084394 225 224 220
0.558190 -0.539792 1.311257 219 218 213
0.496165 -0.496360 1.112580 214 213 209
1.543455 -1.142576 4.289270 207 206 201
2.017725 -1.411030 5.678443 166 165 160
2.290578 -1.562798 6.472184 28 27 22
0.512640 -0.481744 1.111935 77 74 67
0.515386 -0.479308 1.111827 108 105 98
3.603729 -2.268529 10.241783 131 128 121
0.665323 -0.543207 1.508169 214 211 204
0.668582 -0.540316 1.508041 216 213 206
0.671840 -0.537425 1.507913 220 217 210
0.609229 -0.494514 1.309259 225 222 213
0.612231 -0.491850 1.309141 221 218 209
0.893798 -0.635888 2.102541 222 219 210
0.758031 -0.559419 1.705645 222 219 210
0.761546 -0.556301 1.705507 223 220 211
1.051241 -0.693128 2.498589 224 221 212
0.564814 -0.435459 1.109892 224 221 212
0.926018 -0.607304 2.101280 226 223 214
0.054670 -0.982068 1.333167 141 138 131
0.079713 -1.057931 1.533480 144 141 134
0.997159 -4.265296 9.750589 156 153 146
0.086230 -1.052149 1.533225 161 158 151
0.112298 -1.127103 1.733498 164 161 154
0.853932 -3.607721 8.145850 170 167 160
1.005584 -4.061663 9.347673 172 169 162
0.995260 -3.972743 9.146783 178 175 168
1.008258 -3.961211 9.146275 188 185 178
0.057599 -0.881390 1.131759 193 190 183
0.109040 -1.031914 1.532332 202 199 192
0.112299 -1.029023 1.532204 207 204 197
0.065836 -0.874082 1.131437 206 203 196
0.068582 -0.871646 1.131329 214 211 204
0.490294 -0.693690 1.517406 231 228 221
0.438960 -0.641150 1.318123 228 225 218
0.387113 -0.589065 1.118859 217 214 207
2.979796 -2.898745 10.478145 201 198 191
0.447967 -0.633160 1.317770 189 186 179
0.450969 -0.630497 1.317653 175 172 165
0.453971 -0.627833 1.317535 152 149 142
0.400843 -0.576885 1.118322 124 121 114
2.207960 -2.112274 7.488962 113 110 103
2.502122 -2.341710 8.483912 93 90 83
1.319468 -1.331213 4.303052 90 87 80
1.383471 -1.372514 4.501840 213 210 203
0.830076 -0.882654 2.510571 180 177 172
2.879914 -2.496956 9.475589 164 161 156
0.545689 -0.644546 1.515238 161 157 154
0.548948 -0.641655 1.515110 148 144 141
0.552207 -0.638764 1.514983 157 156 154
0.555465 -0.635874 1.514855 191 190 188
0.499005 -0.587882 1.315772 204 203 199
0.502007 -0.585218 1.315655 214 213 208
0.505010 -0.582555 1.315537 214 214 206
0.508012 -0.579891 1.315420 218 218 208
0.511014 -0.577228 1.315302 218 219 205
0.514016 -0.574565 1.315184 212 213 199
0.517019 -0.571901 1.315067 214 215 201
0.520021 -0.569238 1.314949 216 216 204
0.523023 -0.566574 1.314832 222 222 212
0.526026 -0.563911 1.314714 223 223 215
0.529028 -0.561248 1.314597 223 222 217
0.594568 -0.601184 1.513324 223 222 218
1.979302 -1.530487 5.887567 224 223 218
2.005995 -1.506808 5.886522 225 224 220
0.483222 -0.503804 1.115097 225 224 220
0.485968 -0.501368 1.114989 224 223 219
0.556048 -0.537277 1.313539 223 222 218
0.494206 -0.494060 1.114667 218 217 215
0.496952 -0.491624 1.114559 214 213 209
0.834540 -0.682535 2.107810 178 177 172
1.698210 -1.191377 4.690811 47 47 39
0.513427 -0.477008 1.113914 94 91 84
3.660253 -2.295086 10.451506 118 115 108
0.521665 -0.469700 1.113592 160 157 150
2.283682 -1.456621 6.278237 189 186 179
3.651503 -2.204769 10.250555 207 204 197
0.666257 -0.537586 1.510518 208 205 198
0.669515 -0.534695 1.510390 210 207 200
0.741463 -0.568947 1.708867 215 212 205
0.607087 -0.491999 1.311541 217 214 205
0.610089 -0.489335 1.311423 217 214 205
0.890925 -0.632514 2.105602 219 216 207
0.755523 -0.556475 1.708316 219 216 207
0.759038 -0.553356 1.708179 221 218 209
0.832780 -0.586017 1.906585 220 217 208
1.188970 -0.760426 2.899107 223 220 211
1.346633 -0.816716 3.295522 224 221 212
0.851636 -0.569289 1.905847 223 220 211
1.644825 -0.944498 4.089021 224 221 212
1.152061 -0.695089 2.699259 224 221 212
0.030926 -0.901014 1.134814 142 139 132
0.077388 -1.055201 1.535957 140 137 130
0.080647 -1.052310 1.535829 146 143 136
0.083905 -1.049420 1.535702 155 152 145
0.109791 -1.124158 1.736169 160 157 150
0.159072 -1.275844 2.137202 172 169 162
0.741591 -3.201638 7.151421 170 167 160
0.985986 -3.961853 9.156663 178 175 168
0.928027 -3.720162 8.554489 184 181 174
0.055639 -0.879090 1.133846 190 187 180
0.058385 -0.876654 1.133739 200 197 190
0.061131 -0.874218 1.133631 202 199 192
0.063877 -0.871782 1.133524 205 202 195
0.091557 -0.944929 1.333921 211 208 201
0.379662 -0.591637 1.121161 200 197 190
0.382408 -0.589201 1.121054 185 182 175
2.407791 -2.407409 8.496559 162 159 152
2.255254 -2.249622 7.898087 131 128 121
2.211536 -2.190703 7.698318 114 111 104
0.393392 -0.579457 1.120624 98 95 88
1.565651 -1.591259 5.305832 83 80 73
0.398884 -0.574585 1.120409 76 73 66
0.637758 -0.753481 1.916981 150 147 140
0.641530 -0.750136 1.916833 218 215 208
1.348818 -1.295107 4.306916 204 201 196
0.540106 -0.644707 1.517842 204 201 196
0.543365 -0.641816 1.517714 197 193 190
0.546623 -0.638925 1.517587 209 205 202
0.549882 -0.636035 1.517459 216 215 213
0.553140 -0.633144 1.517332 215 214 212
0.496863 -0.585367 1.318054 220 219 215
0.499865 -0.582703 1.317936 219 218 213
3.024899 -2.446165 9.681285 219 219 209
0.566175 -0.621580 1.516822 221 221 209
1.962336 -1.630156 6.096226 225 226 210
1.910673 -1.578286 5.896767 224 225 209
1.919570 -1.570393 5.896419 222 223 209
0.456549 -0.523428 1.118151 225 225 213
0.644054 -0.650194 1.715254 226 226 216
0.464787 -0.516120 1.117829 221 220 216
0.467533 -0.513684 1.117721 225 224 222
0.470279 -0.511248 1.117614 224 223 218
0.478517 -0.503940 1.117291 226 225 221
0.799446 -0.707745 2.112132 227 226 222
0.492247 -0.491759 1.116754 229 228 226
0.494992 -0.489323 1.116646 217 216 214
0.831666 -0.679161 2.110871 212 211 206
1.692960 -1.185211 4.696405 214 214 206
1.038321 -0.788938 2.707223 62 62 54
3.316137 -2.090095 9.468403 89 86 79
3.597523 -2.231278 10.263311 119 116 109
0.519706 -0.467399 1.115679 131 128 121
0.522452 -0.464963 1.115571 163 160 153
0.525198 -0.462527 1.115464 191 188 181
0.595938 -0.497474 1.314175 203 200 193
0.598940 -0.494810 1.314058 203 200 193
0.738956 -0.566003 1.711538 205 202 195
0.604945 -0.489483 1.313823 208 205 196
0.607947 -0.486820 1.313705 209 206 197
0.610949 -0.484157 1.313588 212 209 200
0.613952 -0.481493 1.313470 214 211 202
0.756530 -0.550412 1.710850 217 214 205
0.760045 -0.547294 1.710713 220 217 208
0.904162 -0.614848 2.108033 221 218 209
0.555403 -0.435731 1.114281 225 222 213
1.271593 -0.777400 3.101053 222 219 210
1.148639 -0.691071 2.702905 220 217 208
0.313491 -1.911537 3.747454 142 139 130
0.100253 -1.127450 1.739116 143 140 131
0.059392 -0.969048 1.337378 151 148 141
0.107283 -1.121214 1.738841 159 154 148
0.837213 -3.588090 8.163661 161 156 152
0.252054 -1.576737 2.943185 172 167 163
0.744581 -3.183638 7.158944 175 170 167
0.966241 -3.862927 8.965284 180 175 172
1.026435 -4.004179 9.366264 188 183 180
0.080408 -0.950404 1.336556 194 191 186
0.083411 -0.947740 1.336438 198 195 188
0.061918 -0.869481 1.135611 202 199 190
0.064664 -0.867045 1.135503 207 204 197
0.067410 -0.864609 1.135396 209 206 199
0.377703 -0.589337 1.123248 136 133 126
0.380449 -0.586901 1.123141 102 99 92
0.394179 -0.574720 1.122603 52 49 42
0.452689 -0.620139 1.321981 58 55 48
0.455692 -0.617476 1.321864 80 77 70
0.852634 -0.946614 2.718004 110 107 100
0.405163 -0.564976 1.122173 149 146 139
0.464698 -0.609486 1.321511 167 164 157
0.638839 -0.746976 1.919700 231 228 221
0.765783 -0.829011 2.318067 215 212 205
2.860635 -2.474318 9.496127 206 203 196
2.699163 -2.325588 8.897442 211 206 200
3.004824 -2.541053 9.893819 224 221 216
3.136529 -2.618865 10.292000 222 219 214
0.728105 -0.765111 2.117874 219 218 213
0.554074 -0.627523 1.519681 218 217 212
0.914988 -0.891298 2.715563 219 218 213
1.291646 -1.141105 3.910829 224 224 216
0.490287 -0.489459 1.118841 226 225 221
0.493033 -0.487023 1.118733 225 224 220
3.119651 -1.952557 8.880981 91 90 85
0.987042 -0.730049 2.511074 122 121 116
0.587791 -0.500285 1.316692 136 136 128
0.523239 -0.460227 1.117551 171 168 161
0.525985 -0.457790 1.117443 195 192 183
