ply
format ascii 1.0
element vertex 1213
property float x
property float y
property float z
property uchar red
property uchar green
property uchar blue
end_header
0.343373 0.183982 3.926181 166 164 152
0.373042 0.197836 4.179177 166 164 152
0.437519 0.221024 4.681862 160 156 145
0.500962 0.245121 5.185213 134 130 119
0.563371 0.270129 5.689229 123 119 110
-0.029421 0.152344 1.717283 139 133 119
-0.064972 0.143664 1.468072 149 143 129
0.724325 0.448176 7.762361 152 144 131
0.293171 0.137653 3.410070 116 114 102
1.612515 0.436568 12.620810 150 148 136
1.059997 0.330913 8.898084 161 159 147
1.155647 0.365111 9.652188 163 161 149
1.249745 0.400675 10.407290 168 166 154
0.641067 0.265528 6.176932 170 166 157
0.424010 0.219791 4.685300 171 167 158
0.451865 0.234735 4.939260 160 156 147
0.479202 0.250134 5.193553 145 138 128
0.540049 0.275501 5.698168 131 124 114
0.498557 0.272555 5.452984 129 122 112
0.491092 0.279123 5.457788 135 128 118
0.550129 0.306082 5.963567 119 115 103
-0.004965 0.163244 1.970613 140 134 120
0.054072 0.190204 2.476392 150 144 130
0.163052 0.085776 2.402834 176 167 158
0.038590 0.078446 1.667881 141 137 126
0.245923 0.129695 3.164552 137 135 122
0.307311 0.153573 3.668412 114 112 100
0.657389 0.235011 6.159954 123 121 109
0.755092 0.265882 6.912127 146 144 132
0.851244 0.298117 7.665298 153 150 141
0.945845 0.331718 8.419468 162 158 149
1.107973 0.383796 9.673548 169 165 156
0.273379 0.183425 3.690248 164 160 151
0.301745 0.197411 3.943676 167 163 152
0.667229 0.304237 6.696986 162 158 147
0.457442 0.255146 5.201894 140 136 125
0.673942 0.337273 6.964348 136 132 121
0.795843 0.385799 7.972633 139 137 125
-0.071758 0.136582 1.467209 131 125 113
-0.075086 0.139510 1.469351 145 139 127
1.241545 0.050856 8.220877 190 186 175
0.149879 0.088810 2.407883 165 158 148
0.145516 0.092648 2.410691 143 136 126
0.177756 0.102720 2.661423 128 121 111
0.307201 0.142581 3.664040 148 144 132
0.194840 0.126125 2.921908 149 145 134
0.401819 0.174645 4.417589 131 127 116
0.255183 0.149908 3.426035 119 116 107
0.562920 0.225090 5.671313 124 121 112
0.624265 0.247992 6.174795 140 136 127
0.033340 0.114466 1.939920 155 151 142
0.811885 0.313543 7.682933 160 156 147
0.869609 0.339630 8.188745 164 160 151
0.583060 0.284242 6.201311 165 161 152
0.409905 0.244401 4.955343 142 138 129
0.435681 0.260159 5.210235 122 118 109
0.980390 0.434345 9.474851 129 125 116
1.387479 0.575861 12.742111 134 132 120
1.404464 0.599354 13.002660 140 138 126
0.646008 0.023066 4.797948 190 186 175
0.722080 0.031997 5.291546 190 186 175
0.797118 0.041838 5.785810 190 186 175
0.830129 0.050725 6.035843 189 185 174
0.214264 0.099469 2.905575 182 173 164
0.245723 0.109721 3.156606 172 163 154
0.132344 0.095683 2.415740 149 142 132
0.163803 0.105934 2.666771 132 125 115
0.194745 0.116641 2.918135 127 121 109
0.255078 0.139418 3.421862 146 142 131
0.284469 0.151490 3.674225 151 147 138
0.410241 0.192554 4.678393 120 116 107
0.471575 0.214451 5.181475 125 121 112
0.160588 0.146691 2.940117 148 144 133
0.859099 0.328661 8.187408 160 157 148
0.882026 0.346419 8.443930 159 156 149
0.330953 0.224379 4.458140 150 145 139
0.356724 0.239635 4.712832 135 130 124
0.829969 0.034707 6.029471 190 186 175
0.071645 0.065687 1.909228 181 172 163
0.225071 0.117815 3.165860 161 152 143
0.284359 0.140497 3.669852 125 118 110
0.516277 0.235835 5.689192 130 127 118
0.574498 0.259456 6.193871 148 145 138
0.664400 0.292628 6.949236 159 154 148
0.260003 0.199346 3.956599 163 155 152
0.286027 0.213872 4.210924 164 157 151
0.311535 0.228852 4.465583 158 151 143
0.336525 0.244288 4.720574 146 139 131
0.454486 0.290195 5.728955 140 133 127
0.075584 0.091595 2.174541 171 162 153
0.105999 0.101751 2.425838 167 160 150
0.204418 0.125909 3.175113 153 149 138
0.131276 0.116428 2.680442 122 120 108
0.250317 0.159357 3.687315 137 133 122
0.071098 0.132455 2.448297 149 146 139
0.581807 0.273781 6.453562 158 153 147
0.094307 0.148951 2.704232 165 160 156
0.242146 0.203459 3.963443 163 156 150
0.267390 0.218165 4.218068 162 153 148
0.522310 0.326123 6.491849 162 153 146
0.092826 0.104786 2.430887 165 163 151
0.034464 0.119723 2.197778 131 128 121
0.030360 0.123333 2.200419 150 145 139
0.057926 0.135489 2.453346 159 154 150
0.053563 0.139327 2.456154 164 157 151
0.672254 0.323172 7.471346 164 157 151
0.400637 0.270872 5.480804 165 156 149
0.453409 0.297260 5.988178 163 154 147
0.057841 0.127010 2.449973 138 133 127
0.053479 0.130848 2.452781 155 150 144
0.049116 0.134686 2.455588 160 153 147
0.137421 0.164699 3.210152 163 156 150
0.332800 0.244114 4.977666 165 156 149
0.355707 0.259862 5.233389 163 154 147
0.040582 0.062854 1.917132 179 170 161
0.036737 0.066237 1.919606 179 170 161
0.063033 0.078496 2.172945 177 170 160
0.668567 0.253636 7.188478 129 126 117
0.017889 0.118211 2.201995 149 144 138
0.075553 0.138267 2.705408 158 151 145
-0.051570 0.108532 1.706173 163 156 150
0.096677 0.155075 2.962074 166 157 150
0.325717 0.236721 4.976765 165 156 149
0.348360 0.252194 5.232454 163 154 147
0.009337 0.047916 1.664160 182 173 164
1.355515 0.398597 12.680383 114 111 102
1.063592 0.376329 10.707784 139 134 128
0.591390 0.268459 6.960798 156 149 143
0.035859 0.129240 2.457264 160 153 145
-0.088917 0.099468 1.457331 165 156 149
0.318633 0.229329 4.975865 166 157 150
0.341013 0.244527 5.231520 165 156 149
0.391944 0.269491 5.738859 163 154 147
0.116963 0.083714 2.671498 175 168 158
0.038249 0.084205 2.182444 136 134 122
0.125766 0.110349 2.935688 149 147 135
-0.021094 0.102033 1.950779 125 120 114
-0.024940 0.105416 1.953253 153 146 140
1.325639 0.464297 13.227560 160 153 145
1.101280 0.421024 11.482961 165 156 149
0.311550 0.221936 4.974964 166 157 150
0.391794 0.254479 5.732887 165 156 149
0.074952 0.077740 2.425251 178 171 161
0.005337 0.105112 2.200399 123 118 112
0.031327 0.116119 2.453325 160 153 145
0.355146 0.203831 5.211101 164 157 149
0.377515 0.218023 5.466356 166 157 150
0.304467 0.214544 4.974063 166 157 150
0.189372 0.101985 3.425983 146 142 133
0.247255 0.117792 3.927630 126 122 113
0.332124 0.176588 4.950805 142 137 131
0.414665 0.204068 5.706032 163 156 148
0.297383 0.207151 4.973162 167 158 151
0.481435 0.278787 6.740855 165 156 149
0.820717 0.291711 9.208085 167 160 152
1.174788 0.440228 12.749657 167 158 151
1.199683 0.259583 11.645714 128 124 115
0.229283 0.110411 3.929902 108 105 98
1.174044 0.314490 11.931255 126 123 114
-0.062749 0.076167 1.696458 159 155 146
-0.066336 0.079323 1.698766 165 161 152
0.412255 0.208249 5.964487 169 160 153
0.461326 0.229781 6.470992 168 159 152
0.481095 0.244740 6.727311 167 158 151
0.009295 0.037597 1.916116 180 171 164
0.682109 0.178102 7.666427 126 121 115
-0.062819 0.069196 1.693685 116 113 104
-0.007294 0.084035 2.195630 152 148 139
1.277692 0.354706 13.197599 167 163 154
0.261508 0.165997 4.711033 169 160 153
0.480925 0.227717 6.720540 168 159 152
0.500171 0.242629 6.976992 167 158 151
0.546647 0.265430 7.484761 166 157 150
0.131383 0.079335 3.177704 144 137 129
1.308987 0.265483 12.896662 119 114 108
0.211311 0.103029 3.932174 156 153 146
0.235207 0.113344 4.185432 96 93 86
-0.036925 0.070719 1.942838 111 107 98
0.632957 0.202142 7.690364 150 146 137
0.013452 0.089074 2.447690 166 162 153
0.282947 0.165356 4.960616 168 161 153
0.331998 0.184877 5.466320 167 158 151
0.518720 0.239968 7.226607 167 158 151
0.564410 0.262446 7.734474 166 157 150
0.126145 0.073868 3.177038 142 135 127
0.222742 0.112207 4.188604 130 126 117
1.029378 0.265810 11.185612 154 150 141
0.699492 0.216897 8.445148 169 162 154
0.275863 0.157964 4.959715 168 161 153
0.324387 0.176935 5.465352 166 157 150
0.344400 0.190159 5.720906 167 158 151
0.041715 0.016779 2.154418 181 172 165
0.095729 0.060229 2.924345 175 166 159
1.013247 0.223380 10.917226 117 110 104
0.325338 0.131137 5.190646 166 159 151
0.254428 0.132874 4.699821 168 161 153
0.149310 0.003523 2.886031 185 176 169
0.012907 0.034075 2.169732 180 171 164
0.115669 0.062935 3.175705 128 119 112
1.276488 0.234347 13.149722 101 92 87
0.506518 0.136510 6.676545 149 140 135
0.526520 0.148729 6.931699 170 161 154
0.110431 0.057468 3.175039 163 154 147
0.535361 0.123271 6.918925 128 119 114
0.583855 0.139227 7.423364 163 154 149
0.268510 0.123561 4.948069 171 162 155
0.051527 0.070411 2.941288 172 163 156
0.268375 0.110056 4.942697 174 165 158
0.288884 0.120815 5.197118 170 161 154
0.761861 0.228189 9.967994 168 159 152
0.880540 0.265257 11.228703 168 159 152
0.586254 0.219975 8.735413 165 158 150
0.801678 0.202191 10.714224 164 160 149
0.915627 0.235815 11.974930 162 158 147
0.837548 0.250957 11.491562 162 158 147
0.815314 -0.701902 1.897401 111 112 106
2.712251 -1.661515 7.874986 214 211 206
2.990595 -1.801319 8.762281 225 221 218
1.110652 -0.867238 2.769521 94 97 90
3.227046 -2.007847 8.866795 116 117 109
2.383693 -1.549271 6.479103 142 143 135
0.718155 -0.650742 1.690097 173 174 166
0.610770 0.139251 8.952011 165 161 150
0.882451 -0.752821 2.113540 123 126 119
1.332469 -0.997205 3.421128 159 162 155
3.742766 -2.309557 10.388373 190 191 183
2.975759 -1.887315 8.219983 204 205 197
1.759111 -1.195769 5.009958 211 208 203
1.895435 -1.265194 5.454626 217 214 209
0.445711 -0.494866 1.063603 223 222 218
0.574667 -0.590095 1.243997 194 195 189
1.922013 -1.329988 5.164850 215 216 208
0.513691 -0.536451 1.283236 221 217 214
1.067706 -0.825875 3.054671 225 221 218
0.678626 -0.038154 8.092943 180 171 164
0.134770 0.069110 4.453013 159 155 144
3.185354 -1.972785 9.661212 226 222 219
1.971270 -1.398573 5.379113 221 218 209
0.615528 -0.631456 1.471611 221 216 210
1.368906 -1.079667 3.633561 220 218 206
0.766647 -0.727521 1.901298 220 217 208
0.538450 -0.593398 1.253212 222 217 213
0.441994 -0.530753 1.050305 222 215 209
1.146221 -0.961483 2.977484 221 219 206
0.992709 -0.869840 2.546721 221 219 206
0.913902 -0.822213 2.332660 221 219 206
0.817037 -0.767762 2.126589 222 217 211
0.740302 -0.721452 1.911396 222 217 211
0.664085 -0.675598 1.695871 224 217 211
0.731577 -0.713776 1.917011 225 218 212
1.592811 -1.195880 4.802229 203 202 197
1.323514 -1.077563 3.647613 220 217 210
1.100758 -0.943665 2.997854 220 217 210
1.023253 -0.896171 2.783361 220 217 210
0.946265 -0.849131 2.568535 220 217 210
0.798462 -0.760482 2.134911 220 215 209
0.421830 -0.532592 1.055436 218 215 208
0.488024 -0.570136 1.277207 217 214 207
2.333428 -1.634989 7.227618 212 209 202
0.484368 -0.573952 1.276742 220 217 210
0.618782 -0.651836 1.718576 215 212 205
1.843272 -1.365780 5.685579 195 192 185
0.415044 -0.539675 1.054572 218 215 208
0.477124 -0.574613 1.278585 223 220 213
0.678972 -0.693159 1.940581 213 210 203
0.956242 -0.888133 2.550003 222 219 212
1.496953 -1.210468 4.312122 221 218 211
2.353948 -1.715206 7.189504 221 218 211
0.606310 -0.656959 1.720153 221 218 211
0.398338 -0.531504 1.062708 218 215 208
2.636337 -1.947034 7.526591 220 217 210
0.553402 -0.637123 1.487419 220 217 210
0.735346 -0.776971 1.890593 224 221 214
1.361652 -1.169127 3.855904 222 219 212
2.970384 -2.178493 8.873107 222 219 212
0.414785 -0.565551 1.044279 221 218 211
0.825308 -0.820818 2.359000 221 218 211
0.682995 -0.730915 1.924281 221 218 211
0.858316 -0.832208 2.600909 219 216 209
0.869131 -0.868939 2.326966 224 221 214
0.722174 -0.773936 1.895642 221 218 211
0.760864 -0.790833 2.133690 221 218 211
0.411392 -0.569093 1.043847 221 218 211
1.947177 -1.577400 5.570546 224 221 214
0.788501 -0.824208 2.112275 222 219 212
0.411328 -0.575562 1.041274 221 218 211
1.644718 -1.361216 4.976952 222 219 212
3.210680 -2.399717 9.738849 223 220 213
2.056772 -1.642607 6.280760 221 218 211
0.739540 -0.767539 3.429621 208 203 197
0.774185 -0.784426 3.668851 212 207 201
0.872269 -0.843530 4.128782 216 211 205
0.334569 -0.506413 1.859554 218 215 208
0.482972 -0.596193 2.548628 215 212 205
0.376938 -0.530095 2.093813 212 209 202
0.422894 -0.556932 2.325765 207 207 199
0.668573 -0.705106 3.475290 201 201 193
0.826447 -0.829420 3.891692 204 197 191
1.028510 -0.954843 4.806947 207 200 194
1.384099 -1.176074 6.407371 211 204 198
1.529642 -1.264859 7.097676 216 211 205
1.519592 -1.256017 7.104144 220 215 209
0.418183 -0.561849 2.325165 214 214 206
0.463358 -0.588506 2.557416 209 209 201
1.052932 -0.950158 5.313874 205 202 195
1.954208 -1.708391 5.772090 221 218 211
0.755435 -0.867606 2.104507 226 223 216
2.773671 -2.265791 8.639292 223 220 211
0.695360 -0.814756 2.143166 220 217 210
0.541338 -0.666677 2.503401 203 198 192
0.590128 -0.697022 2.733122 202 197 191
0.944972 -0.921146 4.332603 203 198 192
1.116637 -1.021854 5.266608 202 197 191
1.519396 -1.275553 7.096373 208 203 199
1.815850 -1.460887 8.472311 214 209 203
2.058376 -1.611357 9.621833 221 216 210
3.432087 -2.772730 10.293187 220 217 210
1.320083 -1.276844 3.824838 220 217 210
2.627784 -2.197933 7.940701 226 223 216
1.019714 -1.060880 2.974470 226 223 214
3.273176 -2.632929 10.395449 224 221 212
0.913533 -0.979540 2.781883 227 224 215
1.098620 -1.057870 4.489184 203 200 191
0.697661 -0.789627 2.920801 203 200 191
0.241001 -0.484453 1.127346 199 196 187
0.348622 -0.554990 1.579921 201 198 189
0.217703 -0.463957 1.142339 203 198 192
0.321704 -0.531309 1.597243 203 198 192
0.211047 -0.458101 1.146623 203 198 192
0.207718 -0.455173 1.148765 201 196 190
0.674736 -0.757388 3.196469 206 201 195
1.978380 -1.602479 8.880435 203 198 192
1.253754 -1.121920 5.954845 199 194 188
1.753202 -1.440594 8.242595 207 202 196
2.095792 -1.657487 9.848539 216 211 205
0.911245 -0.893028 4.609763 212 209 200
3.029446 -2.504657 9.237382 224 221 214
0.601009 -0.773002 1.675197 224 221 212
2.122060 -1.845160 6.692755 222 219 210
1.306007 -1.266013 4.089353 223 220 211
1.775669 -1.482602 8.219224 203 198 192
0.174370 -0.432361 1.167610 199 194 188
0.321937 -0.527490 1.854784 202 198 189
0.217754 -0.458963 1.400404 212 208 199
2.042922 -1.636766 9.872227 221 218 209
0.420601 -0.655507 1.006541 226 223 216
0.540745 -0.739089 1.450245 224 221 214
0.741302 -0.882356 2.102710 220 217 210
0.664442 -0.825797 1.891661 223 220 211
0.267900 -0.510112 1.365316 203 199 190
0.214097 -0.462779 1.399939 207 203 194
0.309546 -0.524635 1.859534 207 203 192
0.256182 -0.488746 1.633365 212 208 197
0.693343 -0.773820 3.696626 216 212 201
0.609057 -0.796177 1.663569 222 219 212
2.252833 -1.904669 8.935559 217 214 207
0.821645 -0.909347 3.348906 216 213 206
1.324176 -1.256493 5.368272 217 214 205
2.613453 -2.116419 11.306553 202 198 187
0.313789 -0.546966 1.593273 202 198 187
2.689274 -2.162021 11.778372 202 198 187
0.767292 -0.850980 3.644189 201 197 186
0.673797 -0.779278 3.444049 200 195 189
1.218211 -1.142170 5.957074 199 195 186
0.206854 -0.463440 1.401782 201 197 186
0.252262 -0.492838 1.632867 199 195 184
0.199680 -0.457129 1.406398 211 207 196
0.664273 -0.842756 1.884915 220 217 210
0.390516 -0.642093 1.020671 223 220 211
0.387188 -0.639165 1.022813 225 222 213
1.496820 -1.444622 4.730492 224 221 212
0.407882 -0.627240 1.789804 216 213 204
2.055555 -1.775472 8.532580 216 213 204
0.819266 -0.898763 3.865996 198 194 183
0.916504 -0.964221 4.323627 200 196 185
0.909556 -0.958108 4.328098 201 197 188
1.646093 -1.445380 8.015767 200 196 187
0.729231 -0.819555 3.923935 198 194 183
0.867444 -0.911018 4.615300 210 206 195
1.052063 -1.033261 5.536906 207 204 195
0.475729 -0.714049 1.223119 219 216 209
0.608898 -0.812130 1.657222 213 210 203
1.967176 -1.816342 5.981139 216 213 206
0.596586 -0.801299 1.665145 216 213 206
1.519842 -1.480020 4.709608 226 223 214
0.973921 -1.076039 2.981721 226 223 214
1.488946 -1.452840 4.729490 223 220 211
0.559650 -0.768805 1.688914 220 217 208
0.791845 -0.906323 3.358790 216 213 204
0.321618 -0.559397 1.842092 202 197 191
2.440981 -2.004295 11.913827 202 198 187
0.385206 -0.596265 2.320971 192 188 177
0.236731 -0.494254 1.636819 199 195 184
0.948276 -0.977187 5.077421 202 199 190
3.353275 -2.864326 10.535498 217 214 207
2.696400 -2.268384 11.477601 220 217 208
2.119559 -1.851205 9.251843 209 206 197
0.253274 -0.525377 1.363455 204 202 190
0.302029 -0.559240 1.591777 204 200 189
0.267420 -0.528793 1.614048 205 200 194
0.363087 -0.594897 2.071878 203 198 194
0.513540 -0.691140 3.013844 195 192 183
1.957540 -1.844238 5.972765 224 221 212
1.218828 -1.279584 3.853205 222 219 210
1.277404 -1.322593 4.075005 224 221 212
1.010430 -1.121814 3.208833 224 221 212
2.105228 -1.940076 6.915698 222 219 210
0.411026 -0.671193 1.259121 221 218 209
0.525940 -0.729675 2.482638 220 217 208
1.505699 -1.429689 6.782518 206 203 194
0.346083 -0.597014 1.819900 201 198 189
0.341979 -0.593403 1.822541 198 195 186
0.491782 -0.699625 2.504619 197 194 185
1.067500 -1.103842 5.248054 203 199 190
1.258523 -1.237803 6.163101 205 200 194
0.698915 -0.839237 3.668792 201 196 190
0.735287 -0.862713 3.904879 203 199 190
0.192227 -0.478705 1.399922 203 199 188
0.715994 -0.845740 3.917295 204 200 189
1.360270 -1.473242 1.941898 218 216 204
1.139452 -1.295009 1.565418 220 218 206
2.551280 -2.416828 4.546235 219 217 205
5.006172 -4.368108 9.708013 219 217 205
3.479571 -3.153334 6.541765 219 217 205
0.920994 -1.118852 1.187420 225 223 211
0.823447 -1.041051 0.990903 210 208 196
1.081282 -1.195742 3.158592 228 225 216
1.045799 -1.164526 3.181427 222 219 210
0.774709 -0.958097 2.318717 222 219 210
0.490305 -0.739956 1.464575 225 222 213
1.191940 -1.269046 3.865253 225 222 213
0.721032 -0.910875 2.353259 224 221 212
2.262441 -2.018444 9.399330 217 214 205
0.664441 -0.845058 2.908257 217 214 205
2.127850 -1.916070 8.967361 218 215 206
0.187231 -0.489358 1.141029 202 199 190
0.183902 -0.486430 1.143170 200 197 188
1.249331 -1.247396 6.161932 201 196 190
2.050382 -1.815856 10.054373 201 196 190
1.552437 -1.457945 7.781909 202 198 189
0.188570 -0.482521 1.399457 200 196 185
0.845264 -0.948028 4.606925 199 195 184
1.781267 -1.611164 9.190393 198 194 183
3.532841 -3.228935 6.239891 216 214 202
2.333340 -2.263780 3.902747 216 214 202
0.733009 -0.976030 0.787196 217 215 203
0.979136 -1.124984 2.960592 221 218 209
0.366895 -0.653943 1.022797 225 222 213
0.428821 -0.700914 1.242033 223 220 211
1.392712 -1.436267 4.508057 223 220 211
0.410887 -0.685136 1.253574 220 217 208
0.779244 -0.964146 2.571052 221 218 209
0.698675 -0.863232 3.659247 200 195 189
0.602139 -0.785814 3.462282 202 198 187
1.909339 -1.725581 9.875512 200 196 185
2.222654 -1.948659 11.487498 198 194 183
4.121158 -3.725218 7.406299 215 213 201
1.369840 -1.500797 1.928072 216 214 202
4.247783 -3.815611 8.101465 219 217 205
3.028952 -2.729346 9.403571 221 218 209
0.928674 -1.098681 2.729738 225 222 213
2.521108 -2.331582 7.918191 223 220 211
0.356845 -0.651628 1.026649 222 219 210
0.804835 -0.996735 2.550546 221 218 209
0.478619 -0.744756 1.466053 224 221 212
0.449998 -0.705573 2.002238 218 215 206
1.140622 -1.222127 4.923300 216 213 204
0.517094 -0.743596 2.735713 202 200 188
0.407862 -0.661503 2.288237 199 195 184
0.349660 -0.617301 2.066808 200 196 187
0.855066 -0.977912 4.848176 198 194 183
0.469946 -0.695116 3.024937 196 192 181
0.509631 -0.723028 3.258283 199 195 184
0.593622 -0.782916 3.722000 204 201 192
1.122228 -1.163937 6.488440 208 205 196
0.170985 -0.474115 1.664021 207 204 195
0.253683 -0.532866 2.128570 204 201 192
1.324657 -1.300014 7.911476 203 200 193
0.193995 -0.487357 1.908097 199 196 189
0.147912 -0.453817 1.678868 201 198 191
2.828339 -2.696058 4.865879 216 214 202
2.138437 -2.134580 3.499079 217 215 203
0.859106 -1.093522 0.959501 220 218 206
3.808736 -3.487118 7.080465 219 217 205
1.511424 -1.621935 2.350488 219 217 205
1.778620 -1.837516 2.954585 218 216 204
2.620280 -2.519513 4.741088 212 210 198
1.231687 -1.343365 3.823907 220 217 208
0.463163 -0.738698 1.472978 222 219 210
0.650905 -0.858402 3.162927 216 213 204
0.209882 -0.522370 1.377287 201 199 187
0.255510 -0.556016 1.606606 201 197 186
0.545396 -0.772075 2.972143 201 197 188
1.018985 -1.123768 5.254188 202 197 191
0.280099 -0.571154 1.849463 201 197 188
0.465611 -0.708379 2.764805 199 195 184
1.768167 -1.672452 9.169647 197 193 182
0.696518 -0.872552 4.168297 199 195 184
0.548684 -0.761979 3.487389 198 194 183
0.587330 -0.789483 3.721200 195 192 183
0.758362 -0.913970 4.645860 199 196 187
0.927326 -1.036638 5.571852 204 202 190
1.444495 -1.413681 8.343213 213 211 199
0.249236 -0.537507 2.128005 209 206 197
1.313620 -1.311533 7.910072 206 203 194
0.278381 -0.556653 2.367930 196 193 186
1.812617 -1.666095 10.951808 192 189 182
1.466773 -1.413796 9.104919 195 192 183
2.332904 -2.307311 3.885431 216 214 202
1.911544 -1.960570 3.122674 219 217 205
1.809363 -1.876665 2.929952 217 215 203
0.742799 -1.004222 0.773050 226 224 212
1.589586 -1.695292 2.554427 222 220 208
1.489732 -1.613433 2.360207 209 207 195
1.014635 -1.225406 1.373552 195 193 181
1.827940 -1.887020 3.176474 96 94 82
3.522523 -3.168260 11.132695 226 223 214
0.666465 -0.907130 2.114561 222 219 210
0.343402 -0.652854 1.030069 223 220 211
3.134560 -2.838926 10.865400 219 216 207
0.690503 -0.898340 3.391479 214 211 202
0.329268 -0.622457 1.814598 214 211 202
0.325164 -0.618846 1.817239 216 213 204
0.869706 -1.020068 4.827024 198 194 183
0.847310 -1.000365 4.841436 198 194 183
0.839845 -0.993798 4.846240 197 193 182
0.359556 -0.631140 2.570539 192 188 177
0.442752 -0.692357 3.033956 194 192 180
0.700030 -0.882771 4.419259 196 194 182
1.084766 -1.167354 6.497972 205 203 191
1.681159 -1.608202 9.732869 208 206 194
2.012291 -1.851615 11.587599 209 207 195
0.273670 -0.561570 2.367331 199 196 189
0.310760 -0.588212 2.601941 197 194 187
0.596044 -0.797277 4.227698 188 185 176
0.918902 -1.033410 6.087753 189 186 177
1.892582 -1.746301 11.664634 193 191 179
4.544834 -4.136353 8.654736 223 219 208
2.250641 -2.249578 3.932504 218 214 203
1.112852 -1.314379 1.565398 203 199 188
0.815924 -1.069599 0.981653 173 171 159
1.276841 -1.447687 1.976417 115 113 101
1.179319 -1.367373 1.780899 67 65 53
0.989931 -1.211720 1.386225 39 37 25
0.845641 -1.062860 2.512175 227 224 215
3.358723 -3.065473 10.709391 227 224 215
1.990621 -1.960540 6.940849 221 218 209
0.324578 -0.631858 1.556117 217 214 205
1.629773 -1.637605 7.431335 214 211 202
2.337018 -2.183074 10.592052 215 212 203
0.516794 -0.773557 2.723794 216 213 204
0.292252 -0.597939 1.835194 201 199 187
0.275836 -0.583497 1.845758 199 194 188
0.992934 -1.126673 5.516683 197 193 182
1.732488 -1.678644 9.689705 193 189 178
0.475369 -0.726153 3.267001 191 189 176
0.556227 -0.786327 3.731516 194 192 179
1.840006 -1.751311 10.653613 200 198 185
2.039776 -1.899655 11.816430 207 205 193
0.377885 -0.645872 3.071459 189 187 175
1.104573 -1.186523 7.252762 192 190 178
0.851723 -1.108126 0.955797 221 217 206
2.257961 -2.270656 3.921928 225 221 210
1.374780 -1.538443 2.167628 157 153 142
4.977354 -4.513826 9.914088 39 37 25
3.945967 -3.661176 7.739020 30 28 16
1.909901 -1.929636 5.952409 229 226 217
1.171091 -1.329406 3.847134 223 220 211
0.403364 -0.713684 1.244324 227 224 215
0.353732 -0.660073 1.792406 216 213 204
0.759800 -0.977521 3.595664 216 213 204
0.639265 -0.881428 3.157088 213 210 201
1.902364 -1.868297 8.796042 214 211 202
0.232213 -0.558141 1.612534 201 197 188
0.648695 -0.879777 3.667162 198 193 187
0.531813 -0.786898 3.226235 194 190 179
1.076208 -1.206145 5.972762 195 191 180
1.249765 -1.338938 6.893360 196 192 181
1.789677 -1.749267 9.900843 195 191 180
1.776524 -1.737695 9.909308 195 191 180
0.426352 -0.699093 3.036030 190 188 175
0.549935 -0.792894 3.730715 192 190 177
0.629232 -0.852708 4.195829 194 192 179
1.004829 -1.138376 6.276767 201 199 187
1.206900 -1.291280 7.437087 206 204 192
0.991653 -1.121812 6.543317 198 195 186
1.348375 -1.390874 8.636401 192 190 178
3.532231 -3.348263 6.448333 221 217 206
4.259425 -3.952276 8.043316 223 219 208
2.636618 -2.600550 4.703862 219 215 204
1.589256 -1.728269 2.541309 200 196 185
1.753450 -1.863785 2.951383 191 184 174
0.908934 -1.161024 1.174031 134 127 119
0.905089 -1.157641 1.176506 59 52 44
0.901243 -1.154258 1.178980 30 26 14
1.266892 -1.458070 1.975151 28 24 13
2.297999 -2.262451 7.242582 230 227 218
2.473571 -2.403511 7.903203 225 222 213
0.974027 -1.182557 3.195087 221 218 209
1.795096 -1.842358 6.276868 222 219 210
0.213404 -0.558067 1.105880 215 212 203
0.210076 -0.555139 1.108022 214 211 202
0.186778 -0.534643 1.123015 214 211 202
0.779304 -1.002317 3.836131 212 209 200
2.430398 -2.307465 11.283270 214 211 202
0.184495 -0.528168 1.382352 202 199 190
0.228292 -0.562232 1.612036 201 198 189
0.271572 -0.595841 1.842052 199 196 187
0.267468 -0.592230 1.844693 200 197 188
1.009095 -1.173209 5.493333 198 195 186
1.093554 -1.238578 5.954719 196 193 184
0.116883 -0.473153 1.167993 195 191 182
0.429244 -0.716686 2.772060 195 191 182
1.239783 -1.349356 6.892090 195 191 182
1.687706 -1.694283 9.440393 196 192 181
0.214116 -0.545294 1.879026 191 187 176
0.410056 -0.695339 3.042276 190 186 175
0.700148 -0.919280 4.660673 194 190 179
1.070528 -1.204922 6.743140 199 196 187
1.352863 -1.422039 8.366529 205 202 193
0.241053 -0.560058 2.377428 191 189 177
0.955004 -1.209094 1.141363 218 214 203
0.951159 -1.205711 1.143837 220 216 205
0.755854 -1.041811 0.754190 223 219 208
4.354128 -4.056917 8.229906 222 218 207
1.405410 -1.585539 2.139844 216 212 201
1.305835 -1.501898 1.946257 189 185 174
2.242740 -2.286541 3.919992 165 161 150
3.714789 -3.518218 7.095342 188 184 172
3.610043 -3.430027 6.905083 115 111 100
3.134271 -3.031266 5.922926 56 52 43
1.364304 -1.549376 2.166296 29 25 16
2.920090 -2.791367 9.410399 227 224 215
0.538252 -0.838498 1.667215 221 218 209
0.336487 -0.672875 1.024059 221 218 209
0.752853 -1.011455 2.559775 224 221 212
0.190041 -0.544040 1.118300 215 212 203
0.672302 -0.928711 3.384606 210 207 198
0.866245 -1.083494 4.290460 211 208 199
1.803709 -1.832993 8.582819 213 210 201
2.039085 -2.020266 9.719675 213 210 201
0.344788 -0.664340 2.049377 212 209 200
0.177252 -0.528829 1.384195 204 201 192
0.309888 -0.633636 2.071836 201 198 189
0.305525 -0.629798 2.074644 199 196 187
1.222883 -1.357649 6.637606 198 194 185
1.442487 -1.531047 7.784612 196 192 183
0.373816 -0.681958 2.546027 195 191 182
0.637696 -0.890347 3.922206 196 192 181
0.586730 -0.849470 3.697338 195 191 180
1.156147 -1.298938 6.680552 197 193 182
1.234648 -1.360080 7.145365 195 191 180
0.562040 -0.827749 3.713226 191 187 176
0.277932 -0.601563 2.350065 188 184 173
0.357209 -0.663388 2.814379 190 186 175
0.477142 -0.757020 3.510195 192 189 180
0.885547 -1.076718 5.824028 198 195 186
0.959395 -1.133765 6.291836 203 200 191
1.195867 -1.318043 7.685652 204 201 192
1.051172 -1.297785 1.333918 221 217 206
0.951084 -1.213186 1.140864 222 218 207
1.129963 -1.363649 1.540676 225 221 210
1.790245 -1.920361 2.918006 220 216 205
1.784072 -1.914931 2.921978 199 195 184
1.683468 -1.829877 2.729257 171 167 156
1.865901 -1.983467 3.126782 155 148 138
1.108151 -1.344459 1.554713 176 169 159
1.759382 -1.893210 2.937866 204 200 189
1.006028 -1.258069 1.362969 170 166 154
1.001924 -1.254459 1.365610 90 88 75
5.084569 -4.694238 10.066676 45 43 31
3.216646 -3.119991 6.119481 29 26 17
1.684339 -1.796118 5.303314 226 223 214
1.593884 -1.719993 5.104061 224 221 212
3.222886 -3.063335 10.749777 221 218 209
1.425353 -1.578633 4.697590 222 219 210
2.939341 -2.827697 9.902396 226 223 214
0.961969 -1.195141 3.193554 222 219 210
0.392394 -0.725133 1.242929 224 221 212
1.379010 -1.537863 4.727413 225 222 213
0.809210 -1.067657 2.776933 225 222 213
0.369909 -0.698446 1.772322 214 211 202
1.902881 -1.936590 9.024605 211 208 199
0.259101 -0.600963 1.843629 203 199 190
0.296715 -0.630602 2.076885 199 195 186
1.737760 -1.787874 9.388325 195 191 182
2.175592 -2.138528 11.681191 194 190 181
1.031906 -1.218690 5.980627 196 192 181
1.554401 -1.636922 8.733934 195 191 180
1.322478 -1.450151 7.595872 196 192 181
0.351971 -0.668855 2.813713 188 184 173
0.388259 -0.697327 3.047822 188 185 176
0.465199 -0.758109 3.513234 190 187 178
0.132007 -0.492605 1.667954 196 193 184
1.185093 -1.329287 7.684281 200 197 188
1.295703 -1.416238 8.385487 202 199 190
2.367514 -2.422641 4.085226 224 220 208
2.169901 -2.254683 3.697875 218 214 203
2.068009 -2.167989 3.506186 189 185 174
2.061061 -2.161877 3.510657 159 155 144
1.201976 -1.432610 1.748166 178 171 161
1.759262 -1.905207 2.933094 207 200 190
1.286126 -1.503695 1.951272 174 170 159
1.281246 -1.499402 1.954412 84 82 69
1.926496 -2.046440 3.339993 37 35 22
0.533988 -0.850842 1.663510 223 220 211
0.656684 -0.952891 2.099070 224 221 212
1.049033 -1.277440 3.647397 226 223 214
0.676166 -0.967085 2.343792 224 221 212
0.732101 -1.013348 2.565056 222 219 210
2.343546 -2.324970 10.789373 213 210 201
0.490603 -0.800891 2.720463 208 205 196
1.066301 -1.272013 5.437095 208 205 196
2.309817 -2.289406 11.325596 210 207 198
1.574198 -1.674649 8.969134 192 188 177
0.324829 -0.657998 2.569883 189 185 174
0.615841 -0.890450 4.440681 185 182 173
0.689668 -0.949508 4.907689 192 189 180
0.682203 -0.942940 4.912493 199 196 187
1.113313 -1.289806 7.464911 205 202 193
2.661456 -2.689064 4.661167 229 225 213
2.367363 -2.437653 4.079254 222 218 206
2.264700 -2.349775 3.888264 205 201 189
0.739018 -1.046579 0.757179 150 146 135
1.379419 -1.592899 2.144458 174 167 157
2.398702 -2.462784 4.316142 87 83 72
1.090531 -1.346066 1.559196 34 32 20
1.164917 -1.409069 1.768383 21 27 15
2.068867 -2.179929 3.757230 24 26 21
3.301438 -3.188683 10.932769 224 221 212
1.788421 -1.913699 5.994146 227 223 212
1.644633 -1.792079 5.572565 222 219 210
0.326308 -0.683498 1.022765 221 218 209
2.731536 -2.704384 9.500122 223 220 211
1.164612 -1.386853 4.082079 226 223 214
0.787413 -1.069645 2.782480 222 219 210
1.615081 -1.746572 7.648026 212 209 200
1.336945 -1.511637 6.798790 210 205 199
0.319855 -0.663190 2.569250 190 186 175
0.734315 -1.003423 4.873093 190 186 175
0.893551 -1.133757 5.798843 188 184 173
1.133553 -1.330265 7.186731 188 184 173
0.401189 -0.727428 3.288076 184 180 169
0.754323 -1.016149 5.374328 196 193 184
0.825555 -1.073937 5.842600 204 201 192
4.188510 -4.018245 7.781440 229 225 213
3.890295 -3.761686 7.202789 217 213 201
1.410149 -1.630008 2.120646 192 188 176
2.524635 -2.587294 4.485683 133 129 118
1.472702 -1.683108 2.337244 170 166 157
1.467305 -1.678360 2.340717 92 88 79
2.075934 -2.200277 3.747020 22 28 18
2.520273 -2.579594 5.002194 31 31 29
2.678663 -2.715073 5.413973 36 36 34
2.834984 -2.848733 5.827082 40 40 38
0.620007 -0.932952 2.885968 216 213 204
0.614610 -0.928205 2.889441 216 213 204
0.609213 -0.923457 2.892914 215 212 203
2.208199 -2.270279 9.826361 214 211 202
1.951844 -2.050546 9.220773 213 208 202
0.279381 -0.642946 1.820905 208 203 197
0.909402 -1.166299 5.525113 192 188 179
2.024927 -2.097456 11.485414 192 188 179
0.112556 -0.498114 1.671408 186 184 172
0.502143 -0.821536 3.989224 196 194 182
0.925645 -1.172862 6.542070 198 196 184
3.004775 -3.018731 5.453476 138 134 122
1.565975 -1.774321 2.529631 173 169 160
2.499634 -2.580034 4.751946 23 24 19
2.563893 -2.635141 4.967243 25 26 21
1.812383 -1.985399 3.397659 31 31 29
1.276454 -1.522466 2.202643 27 27 25
2.150795 -2.277418 4.206482 58 58 56
1.353867 -1.589145 2.409476 40 40 38
1.698193 -1.886367 3.214493 37 37 35
1.772245 -1.950089 3.423489 48 48 46
0.112339 -0.506888 1.411876 191 187 176
1.268209 -1.483870 7.854231 187 183 171
1.547230 -1.719366 9.471221 187 183 171
0.176702 -0.560661 1.883756 189 185 173
0.069297 -0.469022 1.439575 178 174 163
0.534667 -0.861334 4.219891 190 186 174
0.916189 -1.182730 6.540867 197 193 181
1.504873 -1.732574 2.308061 172 168 156
3.298120 -3.292741 6.026551 148 144 132
2.815776 -2.872989 5.054717 133 129 117
2.032728 -2.191447 3.507054 182 178 167
1.280867 -1.537341 1.939321 86 82 73
3.839584 -3.762669 7.473231 23 23 13
0.685571 -1.019137 0.783728 25 26 21
0.772254 -1.094479 0.984392 25 26 20
2.100028 -2.248819 3.976637 49 50 45
0.923549 -1.225744 1.399923 37 36 34
3.184306 -3.190779 6.612684 36 35 33
1.598298 -1.812011 3.017279 48 47 45
1.036587 -1.306836 6.456102 190 186 175
0.372583 -0.735528 3.293155 181 177 165
0.598273 -0.928573 4.686596 191 187 175
4.433844 -4.307178 8.362507 147 143 131
3.759619 -3.716905 7.002682 140 136 124
2.806584 -2.882582 5.053548 133 129 117
2.932336 -2.991981 5.741353 25 26 21
3.081420 -3.122316 6.157900 24 25 20
0.919365 -1.230111 1.399391 42 42 40
0.827582 -1.149776 1.202212 32 32 30
0.494079 -0.853092 3.466770 190 185 179
0.958167 -1.256445 6.243035 186 182 170
0.172438 -0.573005 1.880051 188 184 172
0.371439 -0.746022 3.033205 186 182 170
0.116177 -0.523920 1.660013 184 180 168
0.405370 -0.775051 3.523855 178 174 162
0.437750 -0.803127 3.759261 185 181 169
0.469613 -0.830747 3.995000 192 186 174
3.287409 -3.323749 6.017243 139 135 123
4.312621 -4.226734 8.173938 134 130 118
4.974097 -4.809533 10.052625 23 26 15
1.962976 -2.157331 3.541022 20 23 12
1.762129 -1.980443 3.158191 34 37 30
0.678785 -1.026220 0.782865 36 37 32
1.921287 -2.120655 3.567849 29 30 25
2.350933 -2.499116 4.571563 22 23 18
1.610403 -1.846867 2.999790 41 41 39
0.072675 -0.493093 1.428947 182 178 166
0.807729 -1.141585 5.820681 182 178 166
0.469488 -0.843247 3.990027 180 176 164
0.500829 -0.870916 4.225899 187 181 169
4.406498 -4.335718 8.359029 134 128 116
4.179547 -4.134851 7.993403 148 144 132
1.983685 -2.189174 3.522236 20 23 12
2.053613 -2.251295 3.733073 22 25 14
0.960245 -1.282169 1.366635 19 22 11
1.132030 -1.434503 1.767762 19 22 15
1.755573 -1.987286 3.157357 41 43 38
1.207387 -1.501402 1.975104 33 34 29
1.113545 -1.418241 1.779657 28 29 24
2.246104 -2.422449 4.376711 36 37 32
1.528786 -1.786564 2.791625 39 40 35
0.587664 -0.960425 4.164763 187 183 172
0.029700 -0.461716 1.197947 182 178 166
0.104491 -0.528719 1.661491 182 178 166
0.274098 -0.680947 2.831529 178 172 160
0.306468 -0.710028 3.066535 183 177 165
0.911863 -1.245432 0.883278 217 213 201
2.597176 -2.746955 4.144519 215 211 199
2.291295 -2.474526 3.574458 216 212 200
0.996556 -1.321051 1.084410 218 214 202
1.382961 -1.665430 1.858286 220 216 204
1.378081 -1.661137 1.861426 220 216 204
5.217357 -5.083138 9.616123 224 220 208
3.465939 -3.522350 6.141789 226 222 210
4.199672 -4.176731 7.714687 205 201 189
3.996193 -3.995501 7.334362 177 173 161
2.445510 -2.613527 4.242119 140 136 124
2.343140 -2.522358 4.052361 139 133 121
1.845482 -2.078993 3.094446 135 129 117
0.964269 -1.293757 1.360821 20 26 16
0.956062 -1.286536 1.366103 17 23 13
0.943750 -1.275704 1.374026 28 30 25
1.987468 -2.208346 4.025609 230 231 223
0.618746 -0.986453 0.816271 205 207 196
1.288581 -1.584620 2.430288 155 157 143
1.198881 -1.504597 2.232378 142 145 128
0.605433 -0.974741 0.824838 121 124 107
0.682303 -1.043477 1.031004 102 105 88
0.678716 -1.040322 1.033312 93 96 79
0.022978 -0.462329 1.199657 181 177 165
0.878186 -1.240232 6.528885 177 173 161
0.332555 -0.744670 3.301140 178 170 159
0.400355 -0.806538 3.768776 179 171 160
0.467120 -0.867495 4.237079 179 171 160
2.099255 -2.316477 3.181516 216 212 200
4.979528 -4.900522 9.246350 211 207 195
4.390776 -4.372866 8.092640 195 191 179
3.232630 -3.334584 5.772764 167 163 151
1.033958 -1.363112 1.312751 149 145 133
3.497225 -3.572212 6.368783 142 138 126
1.309671 -1.610521 1.901615 140 136 124
1.871081 -2.114124 3.072920 138 134 122
0.735172 -1.095404 0.738733 136 132 120
0.731844 -1.092476 0.740875 137 133 121
1.932015 -2.169348 3.289138 127 120 110
0.960086 -1.298123 1.360288 18 24 14
0.951878 -1.290902 1.365570 19 24 17
0.792674 -1.149226 1.212591 205 207 196
3.000740 -3.133814 6.432849 174 176 163
1.457589 -1.747121 2.828149 131 133 119
1.367377 -1.666140 2.630771 118 121 104
1.523628 -1.806836 3.041082 102 105 86
0.592055 -0.969497 0.830832 58 61 44
0.588726 -0.966569 0.832974 57 59 45
0.894349 -1.271021 6.255766 185 181 169
0.143391 -0.579639 1.885846 183 179 167
1.830610 -2.135126 12.039023 180 176 164
0.351685 -0.774206 3.539817 183 175 164
2.596865 -2.777986 4.132175 217 213 201
1.095438 -1.425246 1.269963 218 214 202
1.585195 -1.866730 2.230931 219 215 203
1.368132 -1.671520 1.860161 221 217 205
0.775047 -1.137010 0.710458 223 219 207
5.267026 -5.188655 9.815467 203 199 187
4.964537 -4.916168 9.244443 178 174 162
4.472777 -4.472922 8.284763 158 154 142
5.030279 -4.976129 9.457364 146 142 130
3.876589 -3.935683 7.137058 142 138 126
3.486187 -3.583731 6.367379 140 136 124
2.059710 -2.296928 3.456935 137 133 121
0.711809 -1.081377 0.751153 32 28 17
4.376797 -4.390609 8.601755 27 27 19
4.271594 -4.295932 8.414228 26 26 18
2.980346 -3.130221 5.671989 23 24 18
2.172915 -2.402893 4.149767 34 36 31
2.457604 -2.661844 4.987474 199 200 194
2.448846 -2.654139 4.993110 225 226 220
3.949701 -4.012748 8.621372 170 171 163
1.788731 -2.058535 3.631315 102 104 90
1.261387 -1.581861 2.439307 78 81 64
0.832782 -1.194176 1.438986 34 36 23
0.322343 -0.755740 3.043598 181 177 165
3.085149 -3.236360 5.086804 218 214 202
2.778797 -2.958954 4.518875 218 214 202
1.683857 -1.966741 2.418224 219 215 203
1.579693 -1.872472 2.230231 220 216 204
3.048049 -3.203721 5.110679 221 217 205
5.246913 -5.198683 9.561224 223 219 207
0.950187 -1.302878 1.105186 192 188 176
1.233335 -1.559870 1.688047 172 168 156
2.468991 -2.681141 4.208193 157 153 141
4.839694 -4.832540 9.058204 153 147 135
4.445692 -4.475393 8.291655 148 142 130
3.296716 -3.433011 5.970753 141 137 125
2.203526 -2.442337 3.868976 64 62 50
4.637443 -4.654611 9.188356 29 26 19
4.257921 -4.310202 8.412489 23 22 17
1.054782 -1.400157 1.547925 21 22 16
1.136292 -1.474497 1.750496 21 24 17
1.980985 -2.243925 3.757161 54 56 51
3.731931 -3.836940 7.730876 54 56 51
3.456606 -3.586829 7.142981 48 50 45
1.865026 -2.139279 3.576759 127 130 123
1.163090 -1.500704 1.988274 180 181 175
2.803893 -2.994188 5.777845 214 215 209
4.546694 -4.582668 10.011826 140 142 131
2.378611 -2.609523 5.031426 83 85 72
1.261282 -1.592350 2.435134 84 86 73
1.421875 -1.738894 2.841838 76 78 65
0.836806 -1.205763 1.433172 59 61 48
0.100346 -0.555234 1.652072 180 176 164
0.404680 -0.844020 3.496420 180 176 164
0.354847 -0.797549 3.273465 181 177 165
0.009471 -0.470024 1.200504 178 174 162
0.591022 -1.023742 4.906649 180 176 164
0.620270 -1.052104 5.142852 177 171 159
0.182275 -0.637835 2.619446 155 147 136
2.085486 -2.343714 3.174609 219 215 203
1.782510 -2.067757 2.605117 219 215 203
0.973185 -1.330650 1.087365 221 217 205
2.868473 -3.060789 4.964131 187 183 171
2.763797 -2.965562 4.776671 167 163 151
4.853859 -4.873328 9.037738 156 152 140
5.029697 -5.034298 9.434225 153 149 137
4.824966 -4.847910 9.056331 150 144 132
0.741634 -1.120668 0.726730 150 144 132
0.738306 -1.117740 0.728871 140 136 124
2.950588 -3.142444 5.675751 22 23 17
1.131581 -1.479413 1.749897 21 24 17
2.891834 -3.090755 5.713560 24 29 22
2.172615 -2.432918 4.137823 18 24 14
2.149443 -2.412533 4.152735 48 51 44
2.404652 -2.646467 4.752966 67 70 63
2.300526 -2.551724 4.565152 164 167 160
3.160968 -3.340078 6.559651 205 208 201
2.840058 -3.048343 6.001700 122 124 113
3.824401 -3.951975 8.426108 84 86 73
2.799854 -3.012974 6.027571 71 73 62
4.439843 -4.518514 10.068627 76 77 71
3.675384 -3.817740 8.267182 84 85 79
1.498578 -1.821107 3.042653 78 79 73
0.284356 -0.743485 3.059563 177 171 159
0.391565 -0.850355 4.009855 152 144 133
0.211939 -0.676639 2.851343 210 202 191
1.782395 -2.079252 2.600544 219 215 203
0.879232 -1.251891 0.890186 221 217 205
1.070574 -1.427514 1.276289 222 218 206
0.969265 -1.334742 1.086866 229 225 213
1.922030 -2.209386 3.019922 216 212 200
4.800746 -4.851284 8.805949 196 192 180
3.156037 -3.342387 5.535847 178 174 162
2.954936 -3.158179 5.156024 163 159 147
1.219292 -1.565638 1.689822 153 147 135
2.309032 -2.571722 4.298585 22 25 18
1.028437 -1.394089 1.558023 21 26 19
3.591237 -3.754416 7.292730 33 38 31
1.103764 -1.464003 1.764166 19 22 15
3.643552 -3.804085 7.513682 15 18 9
0.910519 -1.286705 1.379288 127 130 121
3.694316 -3.852389 7.735632 191 194 185
1.177829 -1.536451 2.225740 67 67 65
4.409103 -4.521318 10.076449 78 78 76
0.499918 -0.961934 4.189693 179 175 163
1.145147 -1.595186 8.357595 177 171 159
1.500827 -1.944547 10.674886 176 172 160
0.315039 -0.784706 3.290195 175 169 157
0.391440 -0.862855 4.004883 153 145 134
0.488911 -0.959540 4.706012 200 192 181
0.378578 -0.851540 4.013160 216 208 197
1.677872 -1.994742 2.408745 220 216 204
1.475747 -1.808619 2.029987 221 217 205
1.367752 -1.709459 1.845069 222 218 206
1.362873 -1.705166 1.848209 222 218 206
2.121703 -2.405962 3.395205 219 215 203
2.018330 -2.310868 3.207313 210 206 194
1.434641 -1.772456 2.056440 187 183 171
1.429503 -1.767936 2.059746 171 167 155
5.059043 -5.118796 9.391827 162 158 146
1.408950 -1.749854 2.072973 155 151 139
1.931365 -2.234361 3.263277 62 64 51
3.941635 -4.094238 7.566753 83 89 77
1.058890 -1.429434 1.534998 27 23 14
1.054527 -1.425596 1.537806 24 21 14
3.301293 -3.505986 6.452337 23 24 18
1.177445 -1.542037 1.967535 69 72 65
1.871569 -2.185908 3.556171 148 151 142
4.520354 -4.644886 9.738483 185 188 177
2.413132 -2.691412 4.988567 100 102 89
2.149229 -2.446787 4.395150 85 87 74
2.976495 -3.220246 6.661350 80 81 76
0.897475 -1.287430 1.638871 37 38 33
0.384884 -0.869697 4.004049 203 195 184
0.412823 -0.898429 4.240484 216 208 197
1.224816 -1.712430 9.823901 220 212 201
1.470509 -1.814086 2.029321 221 217 205
1.758509 -2.081431 2.606622 221 217 205
3.378390 -3.585722 5.885794 221 217 205
2.885980 -3.129230 4.931611 201 197 185
1.530702 -1.871700 2.244797 181 177 165
1.429403 -1.777923 2.055774 161 157 145
3.432797 -3.638245 6.104994 154 152 139
5.234560 -5.311865 9.775545 153 151 138
1.598587 -1.936081 2.455323 155 153 140
2.031242 -2.340003 3.447959 71 69 57
4.509022 -4.645621 8.717172 86 88 75
0.785834 -1.183791 0.944653 34 30 21
0.691516 -1.096155 0.751137 24 21 14
3.391297 -3.611055 6.640122 24 23 18
3.560124 -3.768898 7.039902 24 25 19
1.664875 -2.003715 2.921089 24 25 19
2.821408 -3.081742 5.481587 23 24 18
2.455153 -2.740893 4.700433 23 24 18
1.352608 -1.715022 2.359404 97 98 93
2.657768 -2.933120 5.332682 170 171 165
4.520063 -4.673971 9.726913 168 170 157
2.611391 -2.892321 5.362526 144 146 133
4.661774 -4.807959 10.144142 118 120 106
4.389611 -4.554547 9.556649 99 101 87
3.351283 -3.585171 7.174295 85 87 74
1.029646 -1.416920 1.804601 45 47 34
0.941016 -1.334289 1.607424 49 50 42
1.020404 -1.408789 1.810548 51 52 46
0.765307 -1.170391 1.212074 52 53 47
0.844695 -1.244892 1.415197 52 53 48
3.965778 -4.167704 9.066759 62 63 58
3.787450 -4.001502 8.673094 78 79 74
0.978814 -1.372201 1.837312 56 57 51
0.893028 -1.292072 1.638306 64 65 59
0.959876 -1.462703 7.696360 174 166 155
0.800245 -1.303631 6.782240 172 164 153
1.134364 -1.644163 9.109343 213 205 194
-0.037384 -0.454908 1.220196 221 213 202
-0.006864 -0.486417 1.454768 227 219 208
4.260889 -4.428808 7.595865 225 221 209
3.764884 -3.966619 6.645011 214 210 198
3.175050 -3.416717 5.500530 196 192 180
1.626754 -1.971949 2.432754 175 171 159
1.525201 -1.877442 2.244097 159 155 143
1.519804 -1.872694 2.247570 154 150 138
3.160905 -3.409439 5.763641 82 79 70
4.615476 -4.771752 8.891732 87 87 77
0.971839 -1.364793 1.330154 36 33 24
2.840290 -3.117047 5.461946 21 22 16
3.246739 -3.500450 6.470430 24 25 19
2.228743 -2.548043 4.331438 98 99 94
2.543172 -2.845326 5.145130 187 189 176
4.001785 -4.216361 8.524628 156 158 144
1.986307 -2.324428 3.979433 74 76 62
0.611572 -1.032350 0.799967 66 68 54
1.069902 -1.466562 2.029073 75 76 70
0.819991 -1.231206 1.427870 75 76 68
0.978724 -1.381183 1.833739 71 72 66
0.974103 -1.377117 1.836713 101 102 96
1.293087 -1.678408 2.647474 163 164 158
0.397496 -0.906013 3.985827 168 160 149
0.626965 -1.144051 5.616217 126 118 107
0.893607 -1.419958 7.476695 201 193 182
1.190212 -1.727392 9.571898 222 214 203
-0.040777 -0.458449 1.219765 227 217 207
1.894299 -2.224084 2.509946 127 120 30
0.851145 -1.249641 0.643183 118 112 24
2.862801 -3.132851 4.424749 138 133 77
1.228775 -1.604552 1.415391 220 219 198
3.580338 -3.809488 5.993442 220 218 205
5.147951 -5.285034 9.299343 223 219 207
0.771266 -1.179367 0.694586 217 213 201
4.054670 -4.260819 7.211032 210 206 194
1.242038 -1.621893 1.660662 171 167 155
4.593669 -4.769040 8.387007 161 157 145
1.850788 -2.197151 3.045556 76 76 68
3.687298 -3.926278 6.939832 169 169 161
3.027975 -3.306529 5.587482 164 164 156
1.067361 -1.462548 1.519264 19 16 9
2.500202 -2.819530 4.911892 24 25 17
1.089541 -1.487735 1.758796 99 100 92
2.802751 -3.108389 5.732418 179 181 167
1.314620 -1.702767 2.375369 104 107 88
0.958297 -1.366600 1.589449 44 46 32
2.872825 -3.181383 6.194934 63 65 52
2.192592 -2.537564 4.602235 44 46 35
1.151738 -1.553798 2.226381 56 57 51
0.901583 -1.316706 1.625945 68 69 63
0.734394 -1.158276 1.225924 103 104 96
0.811703 -1.231962 1.429979 158 159 153
1.373874 -1.766241 2.844848 200 201 193
0.561582 -0.994899 0.829521 218 219 211
1.792260 -2.310184 10.443567 196 192 181
0.849312 -1.355819 5.466659 197 193 182
0.721630 -1.260511 6.310239 182 174 163
0.576227 -1.109900 5.388588 213 205 194
1.008140 -1.563625 8.410111 224 216 205
0.957795 -1.356172 0.825538 125 118 30
1.041954 -1.436390 1.024983 116 110 26
3.065788 -3.340455 4.794649 118 114 41
1.638324 -1.998126 2.162820 146 142 94
1.329749 -1.708118 1.600587 204 200 173
1.224328 -1.609194 1.414826 220 219 199
2.268273 -2.595583 3.532650 222 220 207
5.050480 -5.222445 9.096708 224 220 208
4.357320 -4.569378 7.767555 217 213 201
1.541181 -1.912665 2.225333 199 195 183
1.053759 -1.452956 1.270987 182 178 166
1.722680 -2.084699 2.615739 169 165 153
3.730412 -3.980777 6.649370 159 155 143
0.850189 -1.261506 0.894785 159 155 143
2.701468 -3.013766 4.775493 91 88 81
0.721276 -1.141915 0.724140 140 139 134
3.315932 -3.597599 6.155289 190 189 184
2.287572 -2.624921 4.027435 227 227 219
0.796386 -1.214172 0.929408 28 28 20
1.067276 -1.471028 1.515891 15 12 5
4.319987 -4.555076 8.552385 43 39 30
1.933562 -2.294942 3.494441 24 25 19
3.159705 -3.466340 6.509425 202 204 191
2.889140 -3.209770 5.922733 171 173 159
1.061725 -1.472324 1.773066 114 117 98
1.571927 -1.958254 2.966353 100 103 84
4.583467 -4.830133 10.158045 76 78 67
0.604785 -1.039433 0.799104 73 75 62
0.601457 -1.036505 0.801246 61 63 52
1.238960 -1.646787 2.419817 52 53 47
1.233563 -1.642039 2.423290 54 55 49
1.228167 -1.637292 2.426763 61 62 54
0.897136 -1.321348 1.625379 129 130 122
1.055073 -1.472653 2.030948 178 180 169
1.454650 -1.855080 3.041823 215 216 208
1.448478 -1.849650 3.045795 228 229 221
3.371285 -3.689558 7.894881 233 234 226
0.924134 -1.487244 7.440850 168 160 149
0.137501 -0.659242 2.367819 125 117 106
0.166972 -0.691349 2.602456 206 198 187
0.872587 -1.441895 7.474021 221 213 202
0.660830 -1.218522 6.088679 233 225 214
1.675996 -2.041850 2.134337 123 116 28
2.565480 -2.884555 3.842528 114 109 25
3.360534 -3.637498 5.358087 114 114 44
1.329660 -1.717100 1.597014 160 157 116
1.325038 -1.713035 1.599988 211 208 189
1.320417 -1.708969 1.602962 219 217 202
2.374067 -2.709473 3.712307 219 217 204
1.255722 -1.652054 1.644594 211 207 195
3.087613 -3.390710 5.280318 190 186 174
0.957280 -1.369439 1.076451 171 167 155
1.818707 -2.187461 2.802696 164 160 148
0.853706 -1.271633 0.889703 164 160 148
4.721875 -4.955502 9.043219 176 173 168
2.109585 -2.470109 3.629106 215 212 207
2.102378 -2.463768 3.633744 236 235 230
3.386853 -3.687401 6.354745 234 233 228
0.888062 -1.308545 1.120993 66 65 60
0.884216 -1.305162 1.123468 14 13 8
4.396504 -4.655884 8.745803 41 37 28
2.194735 -2.558393 4.081108 28 27 22
1.741210 -2.125970 3.105966 20 21 15
4.135124 -4.412562 8.407208 22 23 17
0.651317 -1.086895 0.766545 91 92 86
3.419994 -3.736619 7.093615 194 196 183
3.321817 -3.643561 6.903394 167 169 155
1.238888 -1.650619 2.162225 127 130 113
1.233750 -1.646098 2.165531 111 114 97
1.057014 -1.477241 1.772466 96 99 82
0.772699 -1.207054 1.195232 71 72 64
0.768853 -1.203671 1.197706 62 64 53
1.182367 -1.600895 2.198597 48 50 39
1.177229 -1.596374 2.201903 48 49 41
1.321034 -1.736261 2.616160 60 61 53
1.315379 -1.731286 2.619799 59 60 52
0.983076 -1.412194 1.820047 105 106 98
0.978455 -1.408129 1.823020 161 162 154
1.785282 -2.184804 3.837801 201 202 194
1.616303 -2.022771 3.439744 222 224 213
1.609613 -2.016886 3.444049 230 232 221
0.055550 -0.562771 1.149932 193 189 178
0.853338 -1.405053 5.957915 189 185 174
-0.007688 -0.507137 1.190626 176 172 160
0.129241 -0.654349 2.116105 172 168 156
0.160517 -0.688551 2.349377 173 167 155
