ply
format ascii 1.0
element vertex 1217
property float x
property float y
property float z
property uchar red
property uchar green
property uchar blue
end_header
-1.642271 0.803552 5.748078 216 216 214
-0.713328 0.149591 1.113291 221 221 219
-1.522615 0.725171 5.262510 226 227 221
-1.463914 0.686473 5.019608 229 230 224
-1.547374 0.749062 5.508989 225 226 220
-1.395526 0.643548 4.777726 217 218 212
-1.245931 0.539017 4.046225 209 210 204
-1.466670 0.700764 5.268405 202 203 197
-1.227308 0.530893 4.048188 198 199 193
-1.082220 0.428328 3.316212 201 202 196
-1.074035 0.424757 3.317074 205 206 200
-1.065850 0.421187 3.317937 209 210 204
-1.057665 0.417616 3.318799 209 210 204
-0.918210 0.317509 2.586230 210 211 205
-0.911152 0.314429 2.586974 211 212 206
-1.979236 1.107628 8.701626 213 214 208
-1.408597 0.688518 5.523612 212 213 208
-0.974486 0.368238 3.078476 212 213 208
-0.924798 0.333472 2.834624 209 210 204
-0.917364 0.330229 2.835407 194 196 185
-0.868803 0.295954 2.591436 167 169 158
-0.767625 0.225635 2.103922 107 104 95
-1.395331 0.708909 6.023186 140 137 128
-0.872762 0.310770 2.840107 169 166 157
-0.865328 0.307527 2.840890 213 210 201
-0.857895 0.304284 2.841674 230 227 218
-1.309121 0.671298 6.032270 227 224 215
-2.021112 0.955844 5.207427 106 99 45
-2.009923 0.950963 5.208606 83 78 36
-1.998734 0.946081 5.209785 64 61 30
-1.733576 0.776273 4.241716 51 49 28
-1.976355 0.936318 5.212143 42 40 25
-2.934629 1.570894 9.095202 43 39 36
-2.917431 1.563391 9.097014 45 41 40
-1.063064 0.348431 1.822348 43 42 38
-2.831442 1.525877 9.106075 44 43 39
-2.458077 1.281797 7.651405 43 42 38
-2.545408 1.346961 8.140207 43 43 35
-3.461466 1.963120 12.027714 51 48 39
-3.381903 1.914877 11.787096 55 52 43
-1.406133 0.592825 3.529213 75 72 63
-2.596841 1.396464 8.632791 111 108 99
-1.275548 0.508791 3.044969 139 137 125
-2.507591 1.343995 8.393194 161 159 146
-1.147966 0.426067 2.560408 170 168 155
-2.194749 1.153384 7.430150 85 83 70
-2.180180 1.147028 7.431685 64 62 50
-2.912547 1.655984 10.840544 63 63 55
-2.839743 1.610690 10.599213 79 79 71
-2.715089 1.529244 10.114344 102 103 97
-2.591937 1.448452 9.629316 131 133 128
-2.522138 1.404469 9.387669 155 157 152
-1.732441 0.856971 5.735849 174 175 170
-1.618302 0.780111 5.249871 191 190 186
-1.607113 0.775230 5.251050 203 202 198
-1.595924 0.770349 5.252229 216 215 211
-1.584735 0.765467 5.253408 221 220 218
-1.573546 0.760586 5.254588 228 227 225
-1.562357 0.755704 5.255767 233 232 230
-1.551167 0.750823 5.256946 235 234 232
-1.539978 0.745941 5.258125 237 236 234
-1.576884 0.775574 5.503238 239 238 236
-1.469880 0.701828 5.016509 239 238 234
-1.103105 0.447092 3.312142 232 228 225
-1.049079 0.409990 3.068832 231 227 224
-0.859405 0.273113 2.092810 232 228 225
-1.033460 0.403176 3.070478 235 231 228
-0.846791 0.267610 2.094139 234 235 229
-0.751804 0.199107 1.606144 235 236 230
-0.746248 0.196683 1.606729 232 233 227
-0.784281 0.226807 1.851724 231 232 226
-0.735136 0.191835 1.607900 231 232 226
-0.815255 0.253852 2.097462 229 230 224
-0.724024 0.186987 1.609071 230 231 225
-0.760555 0.216456 1.854224 234 235 230
-1.338573 0.658075 5.279347 228 229 221
-0.872697 0.305976 2.589414 216 218 207
-0.865639 0.302897 2.590157 178 180 167
-0.771105 0.234591 2.102114 84 84 72
-1.282628 0.633668 5.285242 100 97 88
-0.876864 0.321326 2.837977 151 148 139
-0.869430 0.318083 2.838760 205 202 193
-0.861996 0.314840 2.839543 227 224 215
-0.777901 0.251088 2.350400 230 227 218
-0.923039 0.368535 3.331115 228 225 216
-0.795057 0.272104 2.597595 228 225 216
-0.714341 0.209827 2.108095 229 226 217
-1.564943 0.672203 3.510524 77 73 36
-1.492307 0.626540 3.269261 54 52 27
-1.547822 0.664734 3.512328 42 41 23
-1.475938 0.619398 3.270986 37 37 25
-1.719546 0.781576 4.240982 39 41 30
-3.587044 2.015550 11.511691 41 42 34
-3.441696 1.924190 11.029174 43 44 38
-2.865098 1.546866 8.849684 44 45 39
-3.278400 1.824999 10.548548 43 44 39
-3.136807 1.735278 10.065635 43 44 38
-3.057412 1.686665 9.825085 43 44 36
-2.616851 1.396639 8.129093 42 43 35
-0.843559 0.217738 1.097374 43 42 37
-0.896820 0.254949 1.340678 40 39 34
-0.949330 0.291833 1.584061 36 36 28
-1.402296 0.601246 3.527662 36 36 28
-1.336796 0.558695 3.285648 45 45 35
-1.272047 0.516473 3.043554 62 62 50
-1.208049 0.474578 2.801381 90 91 77
-1.144802 0.433010 2.559129 123 124 110
-1.082307 0.391771 2.316798 151 149 136
-1.020562 0.350859 2.074388 162 160 147
-0.795509 0.196776 1.102437 153 149 137
-2.548567 1.422748 9.131953 87 84 75
-2.159080 1.155004 7.430580 86 86 78
-2.091702 1.111634 7.188763 113 114 108
-2.077509 1.105442 7.190259 153 155 150
-2.011258 1.062564 6.948324 189 194 190
-1.635665 0.800881 5.245486 213 215 212
-1.624476 0.796000 5.246665 224 225 220
-1.613287 0.791118 5.247844 236 232 229
-1.602098 0.786237 5.249023 237 236 232
-1.590908 0.781355 5.250202 241 240 236
-1.579719 0.776474 5.251381 240 239 235
-1.568530 0.771592 5.252560 241 240 236
-1.557341 0.766711 5.253739 241 240 236
-0.713826 0.161140 1.111044 239 238 234
-0.709021 0.159044 1.111550 236 235 231
-0.704216 0.156948 1.112056 238 234 231
-0.699411 0.154851 1.112563 235 231 228
-0.694606 0.152755 1.113069 232 228 225
-2.314006 1.376317 10.152335 233 232 227
-1.186762 0.549140 4.297122 233 234 228
-0.967485 0.383602 3.075646 228 229 223
-0.959676 0.380196 3.076469 216 217 209
-0.869533 0.312919 2.588135 195 197 184
-0.740101 0.214528 1.855024 166 169 152
-0.734169 0.211940 1.855649 135 136 120
-0.960294 0.394440 3.325320 125 122 113
-0.873531 0.328639 2.836630 186 183 174
-0.749357 0.232541 2.102965 225 223 211
-0.704512 0.199001 1.858774 228 225 216
-0.774905 0.257661 2.349189 228 225 216
-0.768223 0.254746 2.349893 226 223 214
-0.836363 0.312423 2.840546 225 222 213
-0.717821 0.218783 2.106288 230 227 218
-0.711514 0.216031 2.106953 233 230 221
-1.368259 0.553238 2.782801 56 56 30
-1.360825 0.549995 2.783585 43 44 30
-1.416923 0.588886 3.026504 39 41 30
-2.356447 1.215036 6.659963 40 41 33
-1.715204 0.791105 4.239227 42 43 35
-1.580708 0.703594 3.755738 40 42 37
-1.377876 0.571852 3.030619 43 45 42
-1.308789 0.527293 2.789068 46 46 44
-3.128425 1.753673 10.062247 46 47 42
-3.049198 1.704691 9.821764 45 46 40
-2.910571 1.615377 9.338711 44 45 39
-2.474568 1.324239 7.642839 45 46 41
-2.459623 1.317719 7.644414 45 46 40
-2.547032 1.384688 8.132864 42 43 38
-2.997525 1.696565 10.076040 39 38 34
-0.836600 0.220369 1.097009 33 32 28
-3.362782 1.956839 11.779366 36 35 30
-0.992499 0.331636 1.827074 37 37 27
-0.930172 0.290026 1.584811 35 37 24
-0.868595 0.248745 1.342468 43 43 31
-0.863415 0.246485 1.343014 56 56 44
-0.802965 0.205695 1.100553 92 90 77
-0.798160 0.203599 1.101060 125 123 110
-0.793356 0.201503 1.101566 147 143 131
-0.783746 0.197310 1.102579 144 138 126
-0.778941 0.195214 1.103085 130 127 118
-1.675406 0.831414 5.238742 129 129 121
-1.611577 0.789149 4.996638 154 157 150
-1.600763 0.784432 4.997777 193 198 192
-2.005064 1.076157 6.945820 225 230 226
-1.939732 1.033237 6.703873 233 235 232
-1.568322 0.770279 5.001195 236 235 231
-1.557509 0.765561 5.002335 235 231 228
-0.735696 0.176348 1.107642 237 238 232
-0.730891 0.174252 1.108148 239 240 234
-0.726087 0.172155 1.108654 237 238 232
-0.721282 0.170059 1.109160 236 235 230
-0.716477 0.167963 1.109667 237 236 231
-2.251955 1.299209 8.910449 234 233 228
-2.473924 1.468136 10.131212 232 231 226
-1.175890 0.512567 3.549563 232 231 227
-1.167329 0.508832 3.550465 232 231 227
-1.141648 0.497629 3.553171 232 231 227
-2.594630 1.650555 12.357968 235 235 227
-0.971794 0.394691 3.073408 230 229 224
-0.963985 0.391284 3.074231 221 220 215
-0.956176 0.387878 3.075054 203 204 196
-0.743374 0.222950 1.853324 169 171 157
-0.737442 0.220363 1.853949 153 156 137
-0.885067 0.342437 2.833716 133 134 120
-0.838137 0.307545 2.589831 177 174 165
-0.831078 0.304466 2.590574 221 218 209
-0.707784 0.207424 1.857074 227 225 213
-0.771910 0.264235 2.347978 226 223 214
-0.795787 0.289070 2.594293 226 223 214
-0.714994 0.224987 2.105145 233 230 221
-0.708687 0.222235 2.105810 234 231 222
-1.300813 0.517719 2.539465 42 43 29
-1.357493 0.557308 2.782238 42 43 37
-2.173775 1.106613 5.929907 43 46 39
-2.035485 1.016560 5.446989 44 47 40
-1.523027 0.674106 3.511029 45 46 40
-1.452230 0.628360 3.269745 45 46 41
-1.382185 0.582941 3.028381 44 45 40
-1.620316 0.746272 3.998267 45 46 41
-1.488786 0.659168 3.514637 47 48 43
-3.101343 1.763910 10.060829 49 49 47
-2.902694 1.632664 9.335526 47 47 45
-2.825513 1.584132 9.094914 49 49 47
-2.749083 1.535928 8.854223 48 49 44
-2.437980 1.325900 7.643280 47 48 43
-1.253421 0.511904 2.793204 43 44 39
-2.466196 1.353071 7.889052 37 38 33
-2.912713 1.666756 9.831960 34 35 30
-1.001703 0.342646 1.824749 37 38 33
-0.995772 0.340058 1.825374 38 39 34
-0.989840 0.337470 1.825999 35 36 30
-0.983909 0.334883 1.826624 30 31 25
-0.922125 0.293068 1.584389 28 29 21
-0.916569 0.290644 1.584975 31 31 23
-0.911013 0.288220 1.585560 42 39 30
-0.850732 0.247061 1.343167 67 63 54
-0.845551 0.244801 1.343713 102 98 89
-0.840371 0.242541 1.344259 130 126 115
-1.156782 0.469744 2.803387 159 155 144
-1.255795 0.542661 3.290443 166 163 154
-1.247610 0.539091 3.291306 177 177 169
-1.606729 0.799787 4.994678 201 202 196
-1.595916 0.795069 4.995818 225 227 222
-1.585102 0.790351 4.996957 232 234 229
-1.933706 1.046460 6.701437 235 236 231
-1.541848 0.771481 5.001515 238 237 233
-1.630721 0.839974 5.489640 235 234 230
-1.371817 0.652721 4.273197 232 231 227
-1.313038 0.612217 4.030646 228 227 223
-1.197733 0.532192 3.545306 233 232 228
-1.093242 0.456884 3.058827 232 231 227
-1.942052 1.094683 7.446792 231 230 226
-1.502553 0.769199 5.254400 231 230 226
-1.083914 0.467675 3.308555 231 230 226
-0.733221 0.210655 1.604294 232 232 222
-1.060768 0.472438 3.559738 235 235 225
-0.968294 0.402373 3.071993 226 226 216
-0.877322 0.332964 2.584089 208 208 198
-0.952675 0.395560 3.073639 179 179 167
-0.944866 0.392153 3.074461 154 154 142
-0.937057 0.388746 3.075284 148 149 135
-0.762624 0.253204 2.098686 175 173 161
-0.756317 0.250452 2.099350 218 215 206
-0.672105 0.183992 1.610734 229 226 217
-0.799682 0.299092 2.592270 226 223 214
-0.792624 0.296013 2.593014 231 228 219
-0.602069 0.138578 1.369369 236 233 224
-0.705860 0.228440 2.104667 235 232 223
-1.489486 0.654265 3.263949 44 44 36
-2.371281 1.253211 6.652259 46 47 42
-1.220338 0.475631 2.297674 46 48 43
-0.899561 0.259169 1.088180 46 47 42
-1.144530 0.427255 2.057003 48 49 44
-1.324426 0.551648 2.784024 49 50 44
-1.070223 0.379534 1.816174 49 50 44
-1.554825 0.713377 3.754382 49 50 44
-0.997419 0.332468 1.575186 47 48 42
-1.415822 0.622128 3.271711 51 52 47
-1.227067 0.493870 2.545624 49 50 45
-1.040565 0.366595 1.819299 48 49 44
-1.034634 0.364007 1.819924 51 52 47
-1.264956 0.525703 2.790290 53 54 49
-1.198835 0.481553 2.548599 46 47 42
-1.191776 0.478474 2.549342 40 41 36
-2.459329 1.368141 7.886276 39 40 35
-2.386447 1.321042 7.645297 38 39 34
-0.884673 0.267977 1.338407 37 38 33
-0.993113 0.345893 1.824299 35 36 31
-0.925191 0.300957 1.582797 31 32 27
-0.908523 0.293686 1.584553 30 29 24
-0.902967 0.291262 1.585139 30 29 24
-0.897411 0.288838 1.585724 46 43 36
-1.214690 0.519077 3.044246 86 83 76
-1.153450 0.477057 2.802040 140 136 127
-1.092962 0.435364 2.559755 182 179 172
-1.085904 0.432285 2.560498 208 208 200
-1.078845 0.429206 2.561242 225 226 220
-1.071787 0.426126 2.561986 232 234 229
-1.219387 0.536430 3.292410 231 233 228
-2.132389 1.210205 7.672067 234 235 230
-1.660231 0.866487 5.483888 234 233 229
-1.598240 0.824139 5.241761 236 232 229
-1.587051 0.819257 5.242940 233 232 228
-1.327487 0.629501 4.026996 226 225 221
-1.268877 0.588627 3.784513 218 217 213
-1.015322 0.401492 2.567936 213 212 208
-1.008264 0.398413 2.568679 219 218 214
-0.904860 0.322695 2.082257 228 227 223
-0.850756 0.283787 1.839299 229 228 224
-1.497538 0.780205 5.252372 229 228 224
-2.139736 1.274624 8.665929 230 229 225
-0.919619 0.344437 2.329361 231 230 226
-0.975041 0.399223 2.820839 231 230 226
-1.065491 0.484593 3.557285 234 234 224
-1.394243 0.750445 5.511916 229 229 219
-0.881216 0.342987 2.582066 220 220 208
-0.874158 0.339907 2.582810 188 188 176
-0.908137 0.370035 2.827889 162 162 150
-0.933556 0.396428 3.073869 152 152 140
-0.766104 0.262160 2.096878 181 181 169
-0.759797 0.259408 2.097543 212 210 198
-0.753490 0.256657 2.098207 233 230 221
-0.652946 0.182186 1.611484 226 223 214
-0.647390 0.179762 1.612069 231 228 219
-0.604928 0.145934 1.367885 235 232 223
-0.703033 0.234644 2.103524 235 232 223
-1.322718 0.543923 2.533933 84 82 34
-1.315660 0.540843 2.534676 53 53 17
-2.405582 1.284028 6.645574 48 48 22
-1.301543 0.534685 2.536164 47 48 34
-1.039377 0.357325 1.569496 46 47 42
-1.541034 0.702152 3.505221 51 53 50
-1.280369 0.525447 2.538395 51 52 47
-1.837166 0.910076 4.716883 52 53 48
-1.328528 0.562203 2.781894 54 54 52
-1.259194 0.516209 2.540626 54 55 49
-1.313660 0.555717 2.783460 52 53 47
-1.245078 0.510051 2.542114 52 53 47
-1.116474 0.422453 2.058518 52 53 47
-1.291359 0.545988 2.785810 52 53 47
-1.103860 0.416949 2.059848 53 54 48
-0.978260 0.330662 1.575936 52 53 47
-1.683952 0.827488 4.484454 51 52 46
-1.556100 0.740217 4.000780 51 52 47
-1.195671 0.488496 2.547320 44 45 40
-2.991078 1.759909 10.063904 41 42 37
-2.510230 1.424160 8.125986 42 43 38
-2.437141 1.376528 7.885114 41 42 37
-1.167438 0.476179 2.550295 37 38 33
-1.160380 0.473100 2.551038 33 34 29
-0.815724 0.228260 1.095916 32 33 28
-1.289381 0.576618 3.283165 25 27 22
-1.335585 0.612521 3.526869 31 32 27
-1.218999 0.530166 3.042008 45 46 40
-1.264827 0.565906 3.285752 82 81 76
-1.096856 0.445387 2.557732 135 132 125
-1.089798 0.442307 2.558476 187 184 177
-1.082740 0.439228 2.559219 223 222 217
-1.023546 0.397658 2.316883 230 231 225
-1.016864 0.394742 2.317588 231 232 227
-1.360559 0.654910 4.021384 232 233 228
-1.351248 0.650847 4.022365 232 231 227
-1.191164 0.533769 3.293514 233 229 226
-1.182979 0.530198 3.294377 226 225 221
-1.273807 0.601316 3.781952 221 220 216
-0.970085 0.374334 2.322517 205 204 200
-1.499713 0.778603 5.001014 188 187 183
-1.286068 0.622411 4.029233 217 216 212
-1.456458 0.759732 5.005572 230 229 225
-1.258133 0.610225 4.032177 230 229 225
-1.248822 0.606162 4.033158 231 230 226
-0.916624 0.351011 2.328150 231 230 226
-0.832655 0.298632 2.088425 232 232 224
-1.027467 0.462353 3.310763 233 233 223
-0.934540 0.390320 2.823409 230 230 220
-0.927106 0.387077 2.824192 223 223 213
-0.711572 0.214314 1.604037 200 200 188
-0.912239 0.380590 2.825758 164 164 152
-0.904805 0.377347 2.826542 148 148 136
-0.769584 0.271116 2.095071 164 164 152
-0.763277 0.268364 2.095735 212 212 200
-0.756970 0.265613 2.096400 230 227 218
-0.672680 0.197347 1.608135 230 227 218
-0.782971 0.292703 2.342233 229 226 217
-0.699808 0.224929 1.853850 226 223 214
-1.829818 1.190304 9.191974 223 220 211
-0.650456 0.187651 1.610477 227 224 215
-0.644900 0.185228 1.611062 233 230 221
-0.602606 0.151030 1.366946 234 231 222
-1.815802 1.215683 9.690598 232 229 220
0.129906 0.083400 5.421302 204 202 190
0.243883 0.206886 8.167617 203 201 188
0.076447 -0.050741 2.929937 203 201 188
0.280389 0.175213 7.922891 201 199 186
0.167553 0.019737 4.679550 201 199 186
0.103035 -0.078086 2.684166 201 199 186
0.215846 -0.017078 4.436065 198 196 183
0.225533 -0.021304 4.437086 198 196 183
0.350723 0.065797 6.687436 198 196 183
0.310953 0.020162 5.688953 197 195 182
0.386634 0.018637 6.194074 193 191 178
-1.124221 0.417081 1.807774 68 68 42
-1.700909 0.814373 3.983394 63 64 48
-1.627238 0.766044 3.742669 69 71 60
-1.490333 0.673938 3.260121 67 68 63
-1.418539 0.626428 3.019198 70 70 68
-1.410730 0.623021 3.020021 70 70 68
-1.340063 0.576002 2.778980 65 66 61
-1.270147 0.529311 2.537860 63 64 59
-1.884156 0.959075 4.958035 58 57 55
-1.070837 0.393791 1.813399 54 55 50
-1.126261 0.434160 2.056046 52 53 48
-2.034655 1.073300 5.687638 55 56 51
-1.901506 0.982833 5.204694 60 61 56
-1.348256 0.595766 3.026604 55 56 51
-1.280593 0.550058 2.785246 56 57 52
-1.213681 0.504677 2.543809 55 56 51
-3.504477 2.151643 12.241921 45 46 41
-1.171332 0.486201 2.548272 42 43 38
-1.164274 0.483122 2.549016 37 38 33
-0.931322 0.316736 1.579613 32 33 28
-1.150158 0.476964 2.550503 33 34 29
-0.920210 0.311888 1.580783 34 32 33
-0.803960 0.228794 1.096058 34 34 34
-0.958138 0.344624 1.825274 27 32 28
-0.789545 0.222505 1.097577 39 44 38
-1.269343 0.577528 3.283407 69 72 65
-1.261158 0.573957 3.284269 113 112 107
-1.093692 0.452330 2.556453 173 170 163
-1.086634 0.449250 2.557197 214 213 208
-1.027233 0.407147 2.314968 234 233 228
-1.020551 0.404231 2.315673 233 234 228
-0.859094 0.285225 1.587223 231 232 227
-0.955970 0.359867 2.073990 232 233 228
-1.195680 0.545391 3.291169 232 231 227
-1.187495 0.541820 3.292031 231 230 226
-1.527306 0.803393 4.995636 227 226 222
-0.924434 0.346110 2.077313 212 211 207
-1.260866 0.606208 3.781275 183 182 178
-0.717471 0.191062 1.105171 171 170 166
-1.291205 0.635633 4.026565 203 202 198
-1.281894 0.631571 4.027546 226 225 221
-0.781310 0.251291 1.595420 231 230 226
-1.603003 0.901174 5.981610 231 230 226
-1.188779 0.590948 4.037358 231 230 226
-1.023798 0.470405 3.309280 232 232 222
-0.931208 0.397632 2.822061 222 222 212
-0.923774 0.394389 2.822845 210 210 198
-0.916340 0.391146 2.823628 179 179 167
-0.744602 0.251465 1.847775 151 152 138
-0.901473 0.384660 2.825195 137 137 125
-0.974690 0.448980 3.314455 147 147 135
-0.766757 0.277320 2.093928 189 189 177
-0.800024 0.308023 2.338910 224 224 214
-0.675745 0.205236 1.606543 230 227 218
-0.818423 0.332239 2.585458 228 225 216
-1.972894 1.337762 10.166919 227 224 215
-1.916873 1.297132 9.924335 231 228 219
-1.048807 0.546072 4.300594 234 231 222
-2.245922 1.602577 12.374536 234 231 222
0.058954 0.046603 4.168833 208 206 194
0.256371 0.332828 9.904845 206 204 192
0.134922 0.094407 5.419275 204 202 190
0.088650 -0.031109 3.178013 204 202 189
0.114953 -0.010205 3.677759 203 201 188
0.113891 -0.025931 3.429160 202 200 187
0.168879 -0.017542 3.931929 200 198 185
0.198626 -0.014331 4.183550 199 197 184
0.501958 0.241876 10.179210 198 196 183
0.318260 0.062990 6.184056 198 196 183
0.395780 0.061549 6.689199 194 192 179
0.734388 0.253799 11.943113 194 192 179
0.801107 0.273259 12.695606 192 190 177
-1.381333 0.602773 2.772933 98 98 88
-1.438466 0.644331 3.015314 107 108 103
-3.934130 2.381757 12.440006 112 112 110
-1.295216 0.548571 2.533606 119 119 117
-1.224717 0.501183 2.292633 123 123 121
-1.659489 0.807284 3.985631 122 122 120
-1.587488 0.759240 3.744817 116 117 112
-2.201691 1.193517 6.164113 110 109 105
-1.445740 0.664136 3.262950 95 94 90
-1.375992 0.617075 3.021897 84 84 82
-1.001059 0.353712 1.570995 70 70 68
-1.786056 0.912397 4.717500 65 65 63
-1.231692 0.520858 2.540299 60 60 58
-0.924331 0.303606 1.330678 59 59 57
-2.948443 1.752149 9.563049 55 55 53
-2.693256 1.574291 8.596332 53 53 51
-1.945721 1.048582 5.694282 49 50 45
-1.818166 0.959670 5.210919 47 48 43
-1.175227 0.496224 2.546249 44 45 40
-1.111112 0.451621 2.304603 39 40 35
-0.934387 0.324625 1.578020 34 35 30
-1.154052 0.486986 2.548480 35 36 31
-1.202924 0.524939 2.791732 34 35 30
-1.195490 0.521696 2.792516 37 36 34
-1.132878 0.477748 2.550712 35 35 33
-1.399834 0.677373 3.764590 26 28 23
-0.792196 0.229328 1.096200 33 38 32
-0.895495 0.307658 1.582118 58 63 56
-0.836263 0.265185 1.339958 104 107 100
-0.831082 0.262925 1.340504 155 156 148
-1.090528 0.459273 2.555174 210 210 202
-1.030921 0.416636 2.313053 232 231 226
-0.972064 0.374326 2.070854 236 235 230
-1.742737 0.960027 5.715671 234 233 229
-1.010873 0.407890 2.315166 233 234 229
-0.953142 0.366072 2.072847 234 235 230
-0.896163 0.324582 1.830450 234 233 229
-1.041121 0.437718 2.560380 233 232 228
-1.034063 0.434639 2.561124 230 229 225
-0.927914 0.355065 2.075506 223 222 218
-0.970777 0.390397 2.319391 215 214 210
-1.296343 0.648855 4.023897 208 207 203
-1.287032 0.644793 4.024878 228 227 223
-1.277720 0.640731 4.025859 229 228 223
-1.031948 0.450348 2.809748 232 231 226
-0.737834 0.222244 1.350330 233 232 227
-1.332805 0.698027 4.516858 232 231 226
-1.312680 0.689247 4.518978 231 230 225
-0.801258 0.283178 1.840450 231 230 225
-0.745483 0.242213 1.597925 231 230 225
-1.113886 0.552623 3.794721 232 232 222
-1.741101 1.075737 7.454654 230 230 220
-0.969910 0.439915 3.064687 218 218 208
-0.837124 0.332089 2.333474 192 192 180
-0.830441 0.329173 2.334178 157 158 144
-0.823759 0.326258 2.334882 139 140 126
-0.979205 0.460602 3.312109 135 135 123
-0.770237 0.286276 2.092120 165 165 153
-0.763929 0.283524 2.092785 215 215 205
-0.757622 0.280773 2.093449 227 227 217
-0.815259 0.339182 2.584179 227 224 217
-1.762806 1.201631 9.191178 235 232 223
-1.205220 0.708894 5.523908 234 231 222
0.178517 0.304799 8.650533 208 206 194
0.310923 0.479884 12.142107 206 204 192
0.187413 0.184494 6.912659 205 203 191
0.426606 0.446047 12.402699 204 202 189
0.062300 -0.076932 2.179846 203 201 188
0.240161 0.045058 5.179406 200 198 185
0.058275 -0.141705 1.185815 200 198 185
0.212111 -0.009233 4.182844 199 197 184
0.323781 0.075105 6.181824 198 196 183
0.270245 0.015301 4.934175 197 195 182
0.307775 0.032192 5.434932 196 194 181
0.221514 -0.046600 3.687032 196 194 181
0.387341 0.064008 6.436923 196 194 181
0.400032 0.058471 6.438260 195 193 180
0.518060 0.123404 8.189508 194 192 179
0.194061 -0.101151 2.690533 192 190 177
-1.442775 0.655420 3.013076 138 139 134
-1.563764 0.742353 3.496959 152 152 150
-3.603948 2.178815 11.228089 159 159 157
-1.292052 0.555514 2.532327 166 167 162
-1.221722 0.507757 2.291422 169 168 163
-1.215039 0.504841 2.292126 172 171 166
-1.145835 0.457575 2.051102 171 171 163
-1.201674 0.499010 2.293534 168 167 162
-1.071451 0.408049 1.810624 156 155 150
-1.126914 0.449320 2.053096 148 147 145
-0.998569 0.359178 1.569988 140 139 137
-1.053656 0.400285 1.812499 125 124 122
-1.047725 0.397698 1.813124 103 102 100
-0.981901 0.351906 1.571745 74 74 72
-0.976345 0.349482 1.572330 56 56 54
-0.970789 0.347058 1.572915 51 51 49
-0.906467 0.301922 1.331377 52 52 50
-1.835529 0.980439 5.206534 55 56 51
-1.940369 1.060327 5.692118 49 50 45
-1.755511 0.928456 4.966650 44 45 40
-1.572907 0.797567 4.240943 42 43 38
-1.108117 0.458195 2.303392 37 38 33
-0.931897 0.330091 1.577014 34 35 30
-1.150888 0.493929 2.547201 36 37 32
-2.798345 1.724908 9.823081 36 35 31
-1.184724 0.525766 2.791952 29 30 24
-1.177290 0.522522 2.792735 35 38 31
-1.169856 0.519279 2.793518 59 64 57
-1.108539 0.475454 2.551664 93 99 89
-1.101481 0.472374 2.552407 148 151 142
-1.041290 0.429040 2.310434 202 203 195
-1.087365 0.466216 2.553895 230 230 222
-1.027925 0.423210 2.311842 236 235 230
-1.737384 0.971772 5.713507 236 235 231
-0.893504 0.330416 1.829375 234 233 229
-0.987829 0.405717 2.316067 232 231 227
-0.981147 0.402802 2.316771 230 229 225
-0.974464 0.399886 2.317476 232 231 227
-0.918780 0.358518 2.075027 227 226 222
-0.912473 0.355767 2.075692 227 226 222
-0.906166 0.353015 2.076357 231 230 225
-0.899858 0.350263 2.077021 231 230 225
-1.891038 1.141256 7.187211 232 229 224
-0.792997 0.269493 1.591650 233 230 225
-0.874630 0.339257 2.079679 231 230 225
-0.730331 0.225080 1.349937 231 230 225
-1.308170 0.699145 4.517155 232 231 226
-1.387848 0.768056 5.005391 232 231 226
-0.917968 0.392314 2.571744 231 230 225
-0.867542 0.353240 2.328742 230 230 222
-1.663905 1.025090 6.962829 231 231 221
-1.269911 0.699529 4.769502 227 227 217
-0.966410 0.447597 3.063272 207 207 195
-0.958600 0.444190 3.064095 166 166 154
-0.950791 0.440783 3.064917 142 143 129
-0.773716 0.295232 2.090313 144 144 132
-0.767409 0.292480 2.090977 198 198 188
-0.761102 0.289729 2.091642 229 229 221
-0.676320 0.218591 1.603944 233 233 225
-0.819154 0.349204 2.582157 230 227 220
-0.659652 0.211320 1.605700 225 222 215
-1.295595 0.779034 5.760059 228 225 218
-1.493620 0.967875 7.229088 236 233 224
0.258087 0.306113 8.903562 205 203 191
0.436335 0.467398 12.398766 203 201 188
0.260651 0.168395 6.917306 203 201 189
0.180437 0.032640 4.425696 201 199 186
0.201210 0.040653 4.676200 201 199 186
0.178522 -0.034824 3.432230 199 197 184
0.134855 -0.084073 2.434366 198 196 183
0.288262 0.036825 5.182005 198 196 183
0.107077 -0.123179 1.686492 197 195 182
0.154903 -0.092819 2.436478 197 195 182
0.378564 0.065728 6.184783 196 194 181
-1.439275 0.663102 3.011661 189 190 182
-1.303005 0.568616 2.529560 195 196 190
-1.359801 0.610912 2.771806 201 201 193
-1.218726 0.514330 2.290211 206 206 194
-1.205361 0.508499 2.291619 209 206 197
-1.198678 0.505584 2.292323 207 204 197
-1.191996 0.502669 2.293027 203 200 193
-1.124087 0.455525 2.051953 201 198 193
-1.117780 0.452773 2.052618 195 191 188
-1.111473 0.450021 2.053282 189 188 184
-1.105165 0.447270 2.053947 170 169 165
-1.039134 0.400945 1.812675 141 140 136
-1.033203 0.398357 1.813300 106 105 101
-1.027271 0.395769 1.813925 80 81 76
-1.021340 0.393182 1.814550 69 70 65
-1.015408 0.390594 1.815175 55 56 51
-1.183015 0.516269 2.542204 48 49 43
-1.118486 0.470599 2.300773 43 44 38
-1.511470 0.764669 3.996974 41 42 36
-0.878243 0.295718 1.333168 36 37 31
-1.154783 0.503952 2.545179 42 43 37
-0.811913 0.249262 1.091927 42 43 37
-0.807108 0.247166 1.092433 40 41 35
-1.181392 0.533078 2.790605 35 36 30
-1.173958 0.529835 2.791388 53 54 48
-1.112434 0.485476 2.549641 87 88 82
-1.105375 0.482397 2.550385 138 139 133
-1.044977 0.438529 2.308519 196 197 191
-1.038295 0.435614 2.309223 228 229 223
-0.979024 0.392238 2.067239 235 234 229
-0.972716 0.389487 2.067903 234 233 228
-1.004882 0.421037 2.312744 236 235 231
-0.947488 0.378480 2.070562 233 232 228
-0.941181 0.375729 2.071226 232 231 227
-0.884914 0.333664 1.828925 230 229 225
-1.453118 0.791765 4.747813 231 230 225
-0.855256 0.320725 1.832050 233 230 225
-2.480903 1.643063 10.348804 233 230 223
-1.450082 0.825476 5.244593 234 231 224
-2.098237 1.371012 8.899746 234 231 224
-0.973247 0.442272 2.812537 233 230 223
-0.648546 0.177991 1.109141 231 231 223
-0.893630 0.390019 2.572697 231 231 221
-1.349379 0.781543 5.255204 224 224 214
-1.046305 0.526698 3.549529 195 195 183
-1.037745 0.522963 3.550431 144 145 131
-0.865397 0.377702 2.575672 132 133 119
-0.939481 0.445058 3.064325 133 134 118
-0.770889 0.301436 2.089170 161 161 149
-0.764582 0.298685 2.089835 219 219 209
-0.679386 0.226481 1.602352 232 232 224
-0.861741 0.393625 2.824287 231 228 223
-0.739354 0.287678 2.092493 231 228 223
-0.770989 0.318997 2.337389 227 224 217
-1.665912 1.129850 8.200611 226 223 216
-1.055155 0.583112 4.293287 230 227 218
-1.303178 0.813941 6.004762 234 231 222
-0.562057 0.140258 1.118255 235 232 223
-0.737576 0.304420 2.340910 235 232 223
-1.571738 1.088765 8.210534 234 231 222
0.125881 0.225525 6.651804 207 205 193
0.084970 0.103231 4.661653 205 203 191
0.042726 -0.053518 2.174902 206 204 192
0.238782 0.246341 7.656621 205 203 191
0.370357 0.416670 10.897475 204 202 190
0.333552 0.327621 9.404217 203 201 189
0.284238 0.068850 5.427340 200 198 185
0.256033 0.028602 4.679678 199 197 184
0.165098 -0.071869 2.684256 199 197 184
0.343253 0.060622 5.681789 198 196 183
0.224100 -0.062574 3.186933 195 193 180
0.421032 0.061725 6.186445 193 191 178
-1.435774 0.670784 3.010246 188 190 176
-1.427965 0.667377 3.011069 178 179 165
-1.420156 0.663970 3.011892 168 169 155
-1.222413 0.523819 2.288296 169 167 152
-1.278666 0.566321 2.530513 167 165 150
-1.271608 0.563242 2.531256 171 169 156
-1.140181 0.469984 2.048816 176 174 162
-1.133874 0.467232 2.049481 183 180 171
-1.127567 0.464480 2.050146 198 195 186
-1.121260 0.461729 2.050810 211 208 199
-1.114953 0.458977 2.051475 221 218 211
-1.168952 0.500496 2.293929 225 222 215
-1.162269 0.497581 2.294633 224 224 216
-1.096031 0.450722 2.053469 204 204 196
-1.089724 0.447971 2.054133 174 173 168
-1.024613 0.401604 1.812850 146 145 140
-1.018681 0.399016 1.813475 117 118 112
-1.012749 0.396429 1.814100 84 85 79
-1.064496 0.436965 2.056791 59 60 54
-1.000886 0.391253 1.815350 43 44 38
-0.938028 0.345870 1.573829 39 40 34
-0.932472 0.343446 1.574415 41 42 36
-0.870740 0.298554 1.332775 45 46 40
-0.865560 0.296293 1.333321 43 44 38
-0.804955 0.251893 1.091563 42 43 37
-0.800150 0.249797 1.092069 44 47 38
-0.904692 0.331326 1.577342 58 61 54
-1.116328 0.495499 2.547618 91 92 86
-1.055347 0.450934 2.305900 128 127 122
-1.048665 0.448019 2.306604 188 187 182
-1.041982 0.445103 2.307308 224 223 218
-1.035299 0.442188 2.308012 234 233 229
-0.976196 0.398443 2.066096 234 233 229
-1.021934 0.436357 2.309421 235 234 230
-0.963582 0.392939 2.067425 235 234 230
-1.059862 0.470865 2.553568 235 234 230
-1.001886 0.427611 2.311533 235 234 230
-0.995203 0.424695 2.312237 233 232 228
-0.938354 0.381933 2.070083 232 231 227
-0.932047 0.379181 2.070748 230 229 225
-0.822940 0.313621 1.834100 233 230 221
-0.901646 0.383879 2.322095 233 230 223
-2.062609 1.357346 8.651513 233 230 223
-2.001628 1.312781 8.409795 233 230 223
-1.455657 0.859064 5.489594 233 230 223
-1.440114 0.870244 5.739376 230 230 220
-1.051028 0.538853 3.547076 224 224 214
-1.042468 0.535118 3.547978 194 194 182
-0.704675 0.244066 1.598418 142 143 129
-0.935981 0.452740 3.062910 132 133 117
-0.768062 0.307640 2.088027 188 188 176
-0.761755 0.304889 2.088692 225 225 217
-0.676895 0.231946 1.601345 231 230 225
-0.788042 0.334317 2.334066 231 230 226
-0.781359 0.331402 2.334770 232 228 225
-0.622078 0.190070 1.358977 230 227 222
-0.767994 0.325571 2.336179 225 222 217
-0.574318 0.151274 1.115865 225 222 215
-1.569135 1.070217 7.710934 226 223 214
-1.334305 0.860005 6.246813 229 226 217
-1.249070 0.786898 5.759506 232 229 220
-1.021752 0.579963 4.294594 234 231 222
-1.047585 0.609194 4.540016 234 231 222
0.118658 0.208164 6.151770 207 205 193
0.359625 0.444290 10.891901 205 203 191
0.314894 0.338080 9.150178 204 202 190
0.087384 -0.047602 2.426311 204 202 190
0.179435 0.055925 4.421164 201 198 189
0.289254 0.079857 5.425313 199 197 184
0.716246 0.396472 12.418344 198 196 183
0.442481 0.084851 6.434036 193 191 176
-1.625082 0.817792 3.732690 135 138 117
-1.552252 0.767615 3.492306 123 127 104
-1.480173 0.717766 3.251842 116 119 98
-1.408846 0.668245 3.011300 116 119 98
-1.401037 0.664838 3.012123 115 117 96
-1.330836 0.615808 2.771461 117 118 100
-1.385418 0.658024 3.013769 123 124 108
-1.315968 0.609322 2.773028 131 129 114
-1.247270 0.560947 2.532209 144 142 129
-1.240211 0.557868 2.532952 160 161 145
-1.233153 0.554789 2.533696 183 184 170
-1.165957 0.507070 2.292718 205 206 192
-1.159274 0.504154 2.293422 225 227 214
-1.093204 0.456927 2.052326 226 228 217
-1.080590 0.451424 2.053655 186 187 181
-1.074283 0.448672 2.054319 164 165 160
-1.067976 0.445920 2.054984 139 140 135
-1.061669 0.443169 2.055649 104 105 99
-0.998227 0.397088 1.814275 70 71 65
-0.992296 0.394500 1.814900 62 63 57
-0.929981 0.348911 1.573408 67 68 62
-1.092448 0.475000 2.300464 67 68 62
-0.863238 0.301389 1.332382 73 74 68
-0.858057 0.299129 1.332928 80 79 74
-1.127280 0.508600 2.544852 90 91 85
-1.120222 0.505521 2.545596 110 111 105
-1.059034 0.460423 2.303985 135 136 130
-1.052352 0.457508 2.304689 177 178 172
-1.045669 0.454592 2.305393 218 219 213
-0.985983 0.410150 2.063624 228 229 223
-0.979676 0.407398 2.064288 233 234 228
-1.443637 0.775441 4.247926 230 231 225
-1.070815 0.483966 2.550802 231 230 226
-1.012256 0.440015 2.308914 231 230 226
-1.056699 0.477808 2.552289 231 230 226
-0.998891 0.434184 2.310322 231 230 226
-0.941834 0.390889 2.068276 231 230 226
-0.885528 0.347921 1.826150 231 230 226
-0.780350 0.265228 1.341116 230 229 225
-1.360255 0.775871 4.752829 233 230 223
-1.308425 0.771663 5.006349 231 231 221
-1.047191 0.547274 3.545525 224 224 212
-0.997269 0.507091 3.302727 199 197 185
-0.702185 0.249531 1.597411 149 150 136
-0.765235 0.313845 2.086884 213 213 201
-0.758928 0.311093 2.087549 225 225 217
-0.674405 0.237412 1.600338 231 230 225
-0.668849 0.234988 1.600924 228 227 223
-0.778363 0.337976 2.333559 230 226 225
-1.511012 1.044080 7.465587 225 222 213
-1.460339 1.003570 7.222868 228 225 216
0.117470 0.204802 5.900773 207 205 193
0.200249 0.352723 8.390080 205 203 191
0.372593 0.056693 5.431538 194 192 179
0.544752 0.165621 7.930263 193 191 178
-1.556975 0.779771 3.489853 108 111 90
-1.420964 0.682741 3.008239 97 102 80
-1.413155 0.679334 3.009062 90 95 73
-1.657243 0.861207 3.975233 87 92 72
-1.585333 0.810989 3.734837 83 86 67
-1.576397 0.807090 3.735779 84 87 70
-1.505613 0.757363 3.495265 85 88 71
-1.374108 0.662299 3.013176 92 94 80
-1.305202 0.613391 2.772464 98 99 85
-1.297769 0.610148 2.773248 99 102 85
-1.229989 0.561732 2.532417 108 110 96
-1.222931 0.558653 2.533161 125 127 113
-1.156278 0.510728 2.292211 150 152 139
-1.149596 0.507813 2.292915 170 172 161
-1.142913 0.504897 2.293620 188 189 181
-1.136231 0.501982 2.294324 199 200 194
-1.129548 0.499066 2.295028 201 202 196
-1.122865 0.496151 2.295732 184 185 179
-1.058841 0.449373 2.054506 163 164 158
-1.052534 0.446622 2.055170 141 142 136
-1.046227 0.443870 2.055835 121 122 116
-0.983706 0.397748 1.814450 117 118 112
-0.977774 0.395160 1.815075 124 125 119
-0.916379 0.349529 1.573572 135 136 130
-0.910823 0.347105 1.574157 146 145 140
-0.850554 0.301965 1.332535 160 161 155
-0.845374 0.299705 1.333081 182 183 177
-0.894155 0.339833 1.575914 198 199 193
-0.888599 0.337409 1.576499 218 219 213
-0.883043 0.334985 1.577085 225 226 220
-0.824652 0.290665 1.335265 229 230 224
-1.074709 0.493989 2.548779 229 230 224
-1.584732 0.904958 4.974764 231 230 226
-1.009260 0.446589 2.307703 231 230 226
-1.104492 0.525828 2.793613 231 230 226
-1.097058 0.522585 2.794397 231 230 226
-0.888801 0.356344 1.824450 231 230 226
-0.833039 0.313170 1.582354 230 229 225
-0.827483 0.310746 1.582939 230 229 225
-1.498223 0.867217 4.983879 230 229 225
-1.236832 0.658949 3.771559 230 229 224
-0.990011 0.457038 2.557704 233 230 225
-1.043354 0.555695 3.543974 234 231 222
-0.960861 0.500860 3.304693 211 211 199
-0.952676 0.497289 3.305556 224 224 214
-0.788733 0.350380 2.330940 225 224 219
-0.704922 0.276124 1.843826 229 228 224
-0.889933 0.451070 3.064194 229 225 222
-0.806498 0.376977 2.577041 228 224 221
-0.977691 0.545895 3.798865 224 221 214
-1.418042 0.983008 6.976109 224 221 212
0.199697 0.107625 4.914819 199 197 185
0.342226 0.271600 7.905509 192 190 178
0.152273 0.015236 3.421986 195 193 180
0.558688 0.384475 10.656017 199 197 184
0.617547 0.415336 11.406137 198 196 183
0.279627 0.053907 4.675268 196 194 181
0.372533 0.051068 5.181003 194 192 179
-1.425273 0.693830 3.006001 94 97 80
-1.353906 0.643406 2.765634 81 85 70
-1.346473 0.640163 2.766418 67 74 58
-1.276233 0.590230 2.525932 63 70 54
-1.269175 0.587151 2.526676 61 65 51
-1.572391 0.815880 3.734160 59 63 49
-1.193379 0.534794 2.286775 65 68 57
-1.186696 0.531879 2.287480 78 81 70
-1.119085 0.483093 2.046717 86 89 78
-3.232125 2.080066 10.500104 86 88 75
-1.212709 0.562517 2.532625 116 118 107
-1.205651 0.559438 2.533369 133 135 124
-0.905217 0.331922 1.325592 154 155 147
-1.074936 0.463832 2.051369 177 178 170
-0.836933 0.282842 1.084900 200 201 195
-1.119870 0.502725 2.294521 213 212 207
-1.113187 0.499809 2.295225 209 208 203
-1.049707 0.452826 2.054027 197 198 192
-1.043400 0.450074 2.054692 184 185 179
-0.981047 0.403582 1.813375 181 182 176
-0.975115 0.400995 1.814000 190 191 185
-0.803298 0.268169 1.088444 204 205 199
-0.798493 0.266073 1.088951 212 211 206
-0.848232 0.307061 1.331597 218 219 213
-0.843052 0.304801 1.332142 225 226 220
-0.784078 0.259784 1.090470 225 226 220
-0.779273 0.257688 1.090976 229 230 224
-0.880552 0.340451 1.576078 228 229 223
-0.811969 0.291241 1.335418 229 230 224
-0.806789 0.288981 1.335963 230 229 225
-2.694683 1.826309 10.308848 230 229 225
-0.745639 0.243014 1.094520 230 229 225
-1.093726 0.529898 2.793050 230 229 225
-1.186367 0.608892 3.279062 230 229 225
-0.702760 0.262886 1.594812 232 230 218
-0.656555 0.223439 1.351794 204 204 192
-0.611101 0.184320 1.108696 154 155 141
-2.024296 1.495262 9.883714 185 185 173
-2.358293 1.814577 12.079502 221 221 211
-0.785738 0.356954 2.329729 223 223 215
-0.779055 0.354039 2.330433 222 221 216
-0.696332 0.279371 1.843376 226 223 218
-1.142136 0.705331 4.771044 226 223 218
-1.355313 0.914068 6.235902 225 222 215
-0.973686 0.554685 3.797246 224 221 214
-1.268780 0.857028 5.997133 222 219 210
0.074107 0.039700 3.163993 205 203 191
0.321238 0.471983 10.130865 204 202 190
0.428790 0.617954 12.621067 203 201 189
0.326573 0.257474 7.404672 165 163 151
0.260270 0.054929 4.423043 197 195 182
0.284138 0.063806 4.673445 196 194 181
0.418483 0.120931 6.174922 195 193 180
-1.358008 0.653961 2.763504 70 72 59
-1.223797 0.555945 2.282044 60 63 52
-1.217114 0.553030 2.282748 53 56 47
-1.273069 0.597173 2.524653 51 54 45
-3.320662 2.141630 10.486331 53 56 47
-3.053664 1.946219 9.523261 57 60 51
-2.728160 1.705552 8.318554 63 66 59
-1.550514 0.816874 3.734424 76 79 72
-1.480818 0.766736 3.493966 92 95 88
-1.411873 0.716925 3.253430 105 107 96
-1.343679 0.667442 3.012815 114 116 105
-1.276237 0.618287 2.772120 121 123 112
-1.209545 0.569460 2.531346 135 135 125
-1.202487 0.566381 2.532090 152 152 144
-1.019909 0.427531 1.807925 168 168 160
-1.013977 0.424944 1.808551 186 186 178
-1.123557 0.512214 2.292606 201 201 193
-0.944734 0.375003 1.568046 217 217 209
-0.882173 0.327978 1.326837 226 225 220
-0.820364 0.281280 1.085549 230 229 224
-2.728177 1.784487 9.309757 226 227 221
-0.810754 0.277088 1.086561 226 227 221
-0.805949 0.274992 1.087067 227 228 222
-0.801144 0.272895 1.087574 231 230 225
-0.796339 0.270799 1.088080 229 228 223
-1.434732 0.786094 3.994425 229 230 224
-1.416109 0.777969 3.996387 230 231 225
-2.411395 1.587090 8.599733 228 229 223
-0.925004 0.386128 1.817926 230 231 225
-0.919072 0.383540 1.818551 228 229 223
-0.804466 0.294077 1.335025 229 228 224
-0.799286 0.291817 1.335571 229 228 224
-0.738680 0.245644 1.094156 229 228 224
-0.733875 0.243548 1.094662 229 228 224
-0.729070 0.241452 1.095168 230 229 225
-1.621689 1.005782 5.709332 230 229 224
-0.895510 0.392992 2.068835 230 229 224
-1.786771 1.156730 6.683142 232 229 222
-1.445274 0.869622 4.984518 233 230 223
-1.387971 0.824890 4.742755 233 230 223
-1.377533 0.820336 4.743855 233 230 223
-1.184142 0.657038 3.773029 233 230 223
-1.220569 0.692662 4.016991 233 230 223
-1.121283 0.609882 3.531851 233 230 223
-1.023499 0.527758 3.046553 233 230 223
-1.015690 0.524351 3.047375 233 230 223
-0.964020 0.482078 2.805019 233 230 223
-0.695677 0.246615 1.346488 233 230 223
-0.776715 0.321434 1.833551 233 230 223
-0.728050 0.280471 1.590878 233 230 223
-0.659413 0.230795 1.350309 230 227 218
-1.099520 0.639852 4.029746 223 223 211
-0.763061 0.335209 2.082791 139 140 126
-1.386418 0.922873 5.981924 141 141 129
-1.919801 1.431820 9.394936 192 192 180
-2.249654 1.753312 11.590389 219 219 209
-0.890742 0.469841 3.060541 217 217 209
-0.769377 0.357697 2.329927 221 221 213
-0.762694 0.354781 2.330631 225 222 217
-0.729281 0.340204 2.334151 219 216 207
-0.003527 -0.075079 1.171620 204 202 190
0.084756 0.103459 3.906734 204 202 190
0.276874 0.473483 9.626403 205 203 191
0.127648 0.143944 4.654657 204 202 190
0.253525 0.167956 5.659125 119 117 105
0.325477 0.176030 6.162309 199 197 184
0.299218 0.009897 3.929332 194 192 179
0.148740 -0.121775 1.435465 192 190 177
-0.973100 0.373755 1.316072 63 64 56
-1.663344 0.896811 3.968209 54 55 47
-1.654033 0.892748 3.969190 54 55 47
-1.519783 0.793829 3.487905 61 62 54
-1.511222 0.790095 3.488807 71 72 64
-1.440944 0.739260 3.248497 83 84 76
-1.432759 0.735689 3.249360 95 96 90
-1.302640 0.638572 2.767640 110 111 105
-1.234614 0.588720 2.527093 131 132 126
-1.167340 0.539196 2.286466 145 146 138
-1.160657 0.536280 2.287170 157 158 150
-1.094510 0.487247 2.046425 168 169 161
-1.029113 0.438542 1.805601 184 184 176
-1.023182 0.435954 1.806226 197 197 189
-0.958912 0.387740 1.565283 209 209 199
-0.953356 0.385316 1.565868 223 220 211
-0.890212 0.337594 1.324806 230 227 218
-0.885032 0.335334 1.325352 234 231 224
-0.823015 0.288103 1.084172 232 232 224
-0.818210 0.286007 1.084678 231 230 225
-2.495959 1.623202 8.339350 230 229 224
-0.808600 0.281815 1.085690 229 230 224
-1.733285 1.028198 5.199415 230 229 224
-1.995010 1.243255 6.410413 230 229 224
-0.897795 0.361077 1.571722 229 228 223
-1.161399 0.576954 2.782523 229 228 223
-1.100509 0.530214 2.541223 229 228 223
-0.828047 0.310473 1.331357 229 228 223
-2.404023 1.603269 8.596753 229 228 223
-1.955496 1.246192 6.662292 229 228 223
-0.731722 0.248275 1.093791 229 228 223
-1.713424 1.080058 5.944654 229 228 223
-0.717307 0.241986 1.095310 230 229 224
-1.329398 0.771296 4.251112 229 228 223
-0.797787 0.317447 1.582260 229 228 223
-2.298538 1.617774 9.351014 232 229 222
-1.661218 1.077458 6.197870 232 229 222
-1.407986 0.866106 4.985977 232 229 222
-1.306784 0.781605 4.501210 232 229 222
-1.207083 0.697759 4.016285 232 229 222
-1.153329 0.654133 3.774234 232 229 222
-0.791851 0.335032 1.830601 232 229 222
-0.960688 0.489390 2.803672 232 229 222
-0.909938 0.447074 2.561304 232 229 222
-0.688174 0.249451 1.346095 232 229 222
-0.703335 0.276241 1.592213 234 231 224
-0.941906 0.501371 3.053366 230 227 218
-1.095346 0.649012 4.028059 224 224 214
-1.046098 0.607351 3.785533 209 209 197
-1.076723 0.640887 4.030022 177 178 164
-1.213341 0.781189 5.006487 147 147 135
-2.394000 1.921695 12.561254 191 191 179
-2.257367 1.801562 11.832505 217 217 207
-1.105533 0.693806 4.522416 220 220 212
-1.878938 1.454891 9.642943 221 221 213
-0.768774 0.385489 2.576179 220 220 210
-1.930914 1.558266 10.628327 218 218 208
-0.608883 0.235034 1.602166 220 217 208
-0.534720 0.162329 1.114550 221 218 209
-1.208476 0.859766 5.997861 226 223 214
-1.129055 0.784768 5.510799 230 227 218
-1.840157 1.559022 11.133321 232 229 220
-1.275099 0.969531 6.981702 233 230 221
-1.102907 0.793535 5.761270 232 229 220
0.091225 -0.030050 2.171367 190 188 176
0.157198 -0.079006 1.930604 194 192 179
0.135520 -0.109899 1.432889 193 191 178
0.365825 0.031726 4.429740 191 189 176
-1.541626 0.813454 3.483648 66 67 62
-1.659170 0.905970 3.966521 75 76 68
-1.587182 0.853946 3.726477 86 87 79
-1.515945 0.802250 3.486354 101 102 94
-1.321609 0.655614 2.763943 114 115 107
-1.375725 0.699841 3.005870 129 130 122
-1.245567 0.601822 2.524326 147 147 139
-1.177710 0.551600 2.283847 167 167 159
-1.110604 0.501706 2.043288 189 189 181
-1.044249 0.452140 1.802651 204 205 197
-1.038317 0.449552 1.803276 212 213 205
-0.973089 0.400477 1.562519 217 218 210
-0.967533 0.398054 1.563105 227 227 219
-0.903432 0.349470 1.322230 232 232 222
-0.898251 0.347210 1.322776 236 233 224
-0.835276 0.299119 1.081782 233 230 221
-0.830471 0.297022 1.082288 231 228 219
-0.979002 0.423675 1.809526 230 229 224
-0.900861 0.368967 1.570130 230 230 222
-2.948790 2.045888 10.764259 229 228 223
-0.878165 0.379683 1.820151 229 228 223
-0.773920 0.292969 1.335877 229 228 223
-0.768739 0.290709 1.336423 228 227 222
-0.715153 0.246713 1.094440 227 226 221
-0.710348 0.244617 1.094946 228 227 222
-0.705543 0.242520 1.095452 228 227 222
-0.883548 0.402649 2.067214 232 229 222
-0.912754 0.477244 2.807025 234 231 224
-1.150690 0.704755 4.267730 234 231 224
-0.938406 0.509053 3.051951 229 226 219
-0.930596 0.505646 3.052774 223 223 213
-0.922787 0.502239 3.053597 215 215 203
-0.678621 0.272011 1.593548 212 212 200
-0.673065 0.269587 1.594133 169 169 157
-1.197680 0.787109 5.005667 143 143 131
-1.224757 0.819539 5.250443 193 193 181
-1.176053 0.777673 5.007946 218 218 208
-2.316568 1.914395 12.564283 220 220 212
-0.786785 0.401670 2.572669 223 222 217
-1.034446 0.654042 4.279979 222 221 217
-1.024759 0.649815 4.280999 220 220 212
-2.155471 1.802878 12.085999 220 220 212
-1.886933 1.541399 10.380889 219 219 211
-1.728312 1.389727 9.407085 220 220 212
-0.566701 0.202566 1.357712 220 217 210
-1.405514 1.083958 7.460062 222 219 212
-1.157256 0.831326 5.752815 227 224 217
-1.079298 0.756080 5.265771 232 229 220
-1.255087 0.977096 6.980654 234 231 222
-0.489321 0.148190 1.118236 232 229 220
0.180052 0.247903 5.893729 203 201 189
0.203933 0.237485 5.896245 202 200 188
0.524941 0.612885 12.120808 203 201 189
0.534965 0.587894 11.874235 143 141 129
0.217870 0.066462 3.916678 194 192 180
0.253923 0.091969 4.415736 197 195 183
0.321732 0.062386 4.422881 195 193 180
0.120904 -0.118031 1.182536 193 191 178
0.820412 0.380892 10.913795 192 190 177
-1.411271 0.724558 3.000341 96 99 92
-1.403461 0.721151 3.001164 114 115 107
-1.270636 0.621082 2.520072 132 133 125
-1.201445 0.569836 2.279819 152 153 145
-1.194762 0.566920 2.280523 168 169 161
-1.126698 0.516165 2.040152 187 188 180
-1.059385 0.465738 1.799701 205 206 198
-1.053453 0.463150 1.800326 219 220 212
-0.987267 0.413215 1.559756 225 226 218
-0.981711 0.410791 1.560342 231 232 224
-0.976155 0.408367 1.560927 234 235 227
-1.384497 0.733938 3.250706 230 231 223
-0.906290 0.356826 1.320745 229 229 221
-1.127936 0.537766 2.287565 231 228 219
-0.870027 0.341006 1.324566 232 229 222
-0.789878 0.284979 1.085468 230 230 222
-0.785073 0.282883 1.085974 229 228 223
-0.771598 0.298065 1.334938 228 227 222
-0.766417 0.295805 1.335484 226 225 220
-1.388325 0.840911 4.488021 224 223 218
-1.569711 1.004287 5.459083 224 223 218
-1.653119 1.082796 5.945382 225 224 219
-1.169694 0.661287 3.520883 228 228 220
-0.781694 0.323530 1.581418 232 229 222
-1.084090 0.623941 3.529904 232 229 222
-1.390708 0.947255 5.725488 234 231 226
-1.096310 0.671393 4.023704 230 227 220
-0.887120 0.474827 2.808027 224 224 214
-0.879686 0.471584 2.808811 217 217 205
-1.303723 0.888245 5.487110 217 217 205
-0.670574 0.275052 1.593127 207 207 195
-0.665018 0.272628 1.593712 164 164 152
-0.621364 0.232523 1.350768 126 126 114
-1.219742 0.830546 5.248416 142 142 130
-1.208552 0.825665 5.249595 189 189 179
-1.160392 0.783593 5.007126 216 216 208
-1.112983 0.741849 4.764578 217 216 211
-1.066324 0.700433 4.521951 221 220 216
-1.789871 1.479428 9.891671 221 221 213
-1.153382 0.822656 5.502952 222 219 212
-1.534047 1.262517 8.680909 225 222 213
-0.803375 0.480414 3.311939 233 230 221
-1.372796 1.107926 7.707726 233 230 221
0.161524 0.270067 5.889049 207 205 193
0.054892 0.021737 2.412201 206 204 192
0.229629 0.345658 7.133944 203 201 189
0.448837 0.544875 10.622654 202 200 188
0.501207 0.585209 11.370804 191 189 177
0.680074 0.633540 12.874913 155 153 141
0.258265 0.101498 4.413981 198 196 184
0.478353 0.237148 7.160152 196 194 181
0.492171 0.231120 7.161608 195 193 180
0.225699 -0.031720 2.677743 193 191 178
0.260990 -0.047116 2.681462 192 190 177
-1.218497 0.585155 2.276496 146 149 140
-1.149099 0.533376 2.036351 169 172 163
-1.142792 0.530624 2.037015 183 186 179
-1.074521 0.479336 1.796751 202 205 196
-1.068589 0.476748 1.797376 213 216 207
-1.001444 0.425952 1.556993 226 229 220
-0.995888 0.423528 1.557579 229 232 223
-0.990332 0.421104 1.558164 232 235 226
-0.924690 0.370963 1.317623 228 231 222
-1.397198 0.749131 3.247498 230 231 223
-1.211006 0.603391 2.524743 229 230 222
-1.203948 0.600312 2.525487 227 227 219
-0.845383 0.314860 1.078522 229 229 219
-2.899450 1.985110 9.770568 234 230 221
-0.967753 0.432757 1.808001 230 229 225
-0.787724 0.289706 1.084597 230 230 222
-2.823610 1.995030 10.273475 229 228 223
-0.633967 0.222626 1.100799 231 228 221
-1.069825 0.649316 3.776909 234 231 226
-1.385356 0.959000 5.723325 234 231 226
-1.333233 0.914757 5.481359 231 228 223
-0.883788 0.482140 2.806680 225 222 215
-0.876354 0.478897 2.807464 218 218 206
-0.673640 0.282941 1.591534 217 217 205
-0.629403 0.242139 1.348738 216 216 204
-0.624222 0.239879 1.349284 206 206 194
-0.619042 0.237619 1.349830 155 155 143
-1.203537 0.836671 5.247567 151 151 141
-1.155545 0.794230 5.005166 194 194 186
-1.108304 0.752117 4.762686 216 215 211
-1.061814 0.710332 4.520127 220 219 217
-2.050688 1.743844 11.344750 221 220 215
-0.840630 0.506319 3.306144 222 219 212
-0.697251 0.357753 2.331420 221 218 211
-0.799706 0.488465 3.310456 228 225 216
-0.759601 0.449465 3.067224 233 230 221
-1.982060 1.821422 12.589271 235 232 223
-0.712745 0.429023 3.072161 233 230 221
0.398219 0.782985 12.840084 204 202 190
0.175877 0.170368 4.650544 202 200 188
0.152438 0.094579 3.658243 204 202 190
0.057943 -0.079231 1.173706 161 159 147
0.236253 0.144028 4.656906 198 195 186
