ply
format ascii 1.0
element vertex 1179
property float x
property float y
property float z
property uchar red
property uchar green
property uchar blue
end_header
-1.158930 -1.176060 4.062245 150 145 125
-1.032817 -1.014627 3.549512 148 143 123
-0.784272 -0.682067 2.526107 148 143 123
-0.598385 -0.431276 1.758844 139 134 112
-2.066277 -2.488170 7.886194 137 133 108
-3.343317 -4.307345 13.243501 134 130 103
-3.334830 -4.329687 13.238751 130 126 97
-3.083403 -4.004715 12.213732 128 125 94
-3.075557 -4.025371 12.209341 125 122 91
-0.832364 -0.802181 2.774097 125 122 91
-1.683466 -1.738621 6.134162 149 151 140
-1.427928 -1.429321 5.105284 145 146 138
-1.612737 -1.679314 5.873112 17 19 14
-0.480833 -0.240038 1.253240 111 113 100
-0.976537 -0.899103 3.302394 204 205 189
-1.342632 -1.408365 4.836079 209 206 187
-1.277827 -1.333462 4.578344 158 153 134
-1.090458 -1.090208 3.809083 152 147 128
-0.842768 -0.760250 2.784596 152 147 127
-0.596359 -0.426919 1.760827 147 142 122
-0.777965 -0.685344 2.526862 139 134 112
-0.532997 -0.348219 1.503899 137 133 108
-1.196054 -1.303231 4.311112 136 132 103
-1.555101 -1.831046 5.840852 131 127 98
-0.949646 -0.969897 3.287343 127 124 93
-0.827403 -0.800700 2.775996 125 122 91
-1.673127 -1.735535 6.138120 149 151 140
-1.169364 -1.107386 4.081336 158 159 151
-1.602812 -1.676352 5.876911 20 22 17
-0.662402 -0.487657 2.022761 187 188 172
-1.211663 -1.240323 4.326864 209 206 187
-1.147593 -1.164700 4.069150 166 161 142
-1.083843 -1.088234 3.811616 148 143 124
-0.594332 -0.422562 1.762809 148 143 123
-0.653761 -0.510406 2.017924 140 135 115
-0.773417 -0.683987 2.528603 136 131 111
-0.468756 -0.264566 1.248817 138 134 107
-1.669155 -1.990288 6.357749 135 131 102
-1.365453 -1.568339 5.078500 129 125 96
-1.959567 -2.447220 7.629560 128 125 94
-0.524504 -0.362097 1.501872 123 120 89
-1.596730 -1.663274 5.882861 158 159 151
-1.654784 -1.753524 6.137597 17 19 14
-0.661562 -0.478963 2.025797 30 33 24
-0.658682 -0.486546 2.024185 165 166 150
-1.204220 -1.238101 4.329713 213 210 191
-1.140564 -1.162602 4.071841 166 161 142
-1.077227 -1.086259 3.814148 147 142 123
-0.832846 -0.757289 2.788394 146 141 122
-0.830925 -0.762345 2.787319 141 136 116
-0.768870 -0.682630 2.530344 137 132 112
-1.246906 -1.368809 4.575847 139 134 112
-1.303679 -1.462432 4.829866 140 136 111
-2.254945 -2.847442 8.918183 131 127 98
-1.059298 -1.133458 3.804113 130 126 97
-1.709411 -2.095875 6.612658 129 126 95
-1.705088 -2.107256 6.610238 124 121 90
-1.961465 -2.125200 7.432157 145 147 136
-1.586805 -1.660312 5.886660 150 151 143
-1.644445 -1.750438 6.141555 15 16 11
-0.657842 -0.477853 2.027221 37 40 31
-0.656402 -0.481645 2.026415 106 108 95
-0.654962 -0.485436 2.025609 170 171 153
-1.196777 -1.235880 4.332562 209 207 186
-1.133534 -1.160504 4.074532 163 158 139
-1.070611 -1.084285 3.816681 149 144 125
-0.827885 -0.755808 2.790294 148 143 124
-0.825964 -0.760864 2.789219 141 136 117
-0.764323 -0.681273 2.532084 138 133 113
-1.295408 -1.459963 4.833032 137 133 108
-2.536260 -3.272562 10.202834 137 133 106
-0.639120 -0.527142 2.016742 126 122 93
-1.693922 -2.103923 6.614513 127 124 93
-1.949058 -2.121497 7.436906 145 147 136
-1.638109 -1.736815 6.147752 146 147 139
-3.038694 -3.584754 12.061191 17 18 13
-0.654122 -0.476743 2.028645 46 49 40
-0.652682 -0.480534 2.027839 116 118 105
-1.129226 -1.151242 4.078746 210 208 187
-1.126505 -1.158406 4.077223 163 158 139
-1.063996 -1.082310 3.819213 151 145 129
-0.822924 -0.754327 2.792193 150 145 126
-0.821003 -0.759384 2.791118 138 133 114
-2.954149 -3.807325 12.013870 139 134 114
-1.228151 -1.372127 4.580160 136 132 107
-1.166282 -1.294345 4.322509 128 124 97
-0.809479 -0.789721 2.784668 130 127 96
-0.924252 -0.968886 3.294952 127 124 93
-3.034213 -3.538361 12.077394 147 149 138
-1.688586 -1.813071 6.409161 152 153 145
-2.958186 -3.499065 11.811429 17 18 13
-1.122197 -1.149144 4.081436 211 209 188
-1.119476 -1.156308 4.079913 163 158 139
-0.998006 -0.997199 3.565101 152 146 130
-0.817963 -0.752847 2.794092 151 145 129
-0.816042 -0.757903 2.793017 140 135 116
-2.286465 -2.872988 9.201336 137 132 112
-1.220294 -1.369782 4.583167 139 135 110
-2.035039 -2.577113 8.166961 124 120 93
-0.806439 -0.783184 2.787642 126 122 93
-0.804518 -0.788241 2.786567 128 125 94
-0.918463 -0.967158 3.297168 124 121 90
-2.045369 -2.271685 7.961804 150 152 141
-1.677834 -1.809862 6.413277 153 154 146
-3.119472 -3.732183 12.591430 19 21 16
-0.586761 -0.394039 1.774152 42 45 36
-2.425590 -2.938339 9.741233 215 214 193
-1.115168 -1.147046 4.084127 208 206 185
-1.112446 -1.154210 4.082604 166 161 142
-0.932844 -0.912335 3.310672 147 142 123
-0.813002 -0.751366 2.795991 148 143 124
-3.156691 -4.110665 13.059866 142 137 118
-2.095723 -2.615587 8.437591 136 131 111
-0.865560 -0.851234 3.049210 140 135 113
-1.212438 -1.367437 4.586175 142 138 113
-2.021391 -2.573039 8.172185 127 123 96
-3.049053 -4.155801 12.775818 129 126 95
-0.970194 -1.052238 3.555380 123 120 87
-2.994508 -3.526510 12.092593 149 151 140
-1.727070 -1.885748 6.675161 152 153 145
-3.278276 -3.964561 13.372382 18 20 15
-0.583454 -0.393052 1.775418 39 42 33
-1.056955 -1.042673 3.833978 133 135 122
-2.527515 -3.096774 10.261868 218 217 196
-1.108139 -1.144948 4.086818 209 206 187
-1.105417 -1.152112 4.085295 170 165 146
-0.985602 -0.993497 3.569849 144 139 120
-0.808041 -0.749885 2.797890 149 144 125
-0.456761 -0.252546 1.256122 144 139 120
-1.849395 -2.274774 7.416204 141 136 116
-0.802279 -0.765054 2.794665 139 134 112
-1.204581 -1.365092 4.589182 144 140 113
-1.201540 -1.373100 4.587480 130 126 99
-0.739091 -0.694382 2.535106 129 125 98
-1.768113 -2.251737 7.146518 129 126 95
-0.963992 -1.050387 3.557754 125 122 89
-3.273329 -3.913335 13.390273 149 151 140
-1.656330 -1.803444 6.421509 152 153 145
-2.543383 -3.005300 10.286731 18 20 15
-0.580148 -0.392065 1.776684 43 46 39
-0.695135 -0.560964 2.290207 182 183 165
-1.101109 -1.142850 4.089509 212 209 190
-1.040095 -1.067669 3.830776 163 157 141
-0.979400 -0.991646 3.572223 151 145 129
-0.803080 -0.748405 2.799789 151 145 129
-0.685533 -0.586243 2.284833 147 142 123
-1.836989 -2.271071 7.420954 141 136 116
-0.797318 -0.763573 2.796564 138 133 111
-1.139392 -1.277873 4.335518 141 137 112
-1.193683 -1.370755 4.590487 126 122 97
-3.072044 -4.207428 13.053030 128 124 97
-1.358156 -1.645186 5.356290 128 124 95
-0.957790 -1.048536 3.560128 122 119 88
-1.056530 -1.005011 3.846211 144 146 135
-1.704738 -1.879083 6.683710 149 150 142
-0.874405 -0.780687 3.069358 21 23 18
-0.694202 -0.551304 2.293581 44 47 40
-0.692602 -0.555517 2.292686 133 135 122
-0.691002 -0.559730 2.291790 186 187 171
-0.689401 -0.563943 2.290894 219 218 198
-1.094080 -1.140752 4.092200 200 197 178
-1.033479 -1.065695 3.833309 164 158 142
-0.915479 -0.907153 3.317319 152 146 130
-0.625441 -0.497732 2.030123 144 138 122
-0.624000 -0.501523 2.029317 142 137 118
-2.740408 -3.609884 11.537849 137 132 112
-1.814975 -2.292658 7.420326 141 137 112
-1.412861 -1.709098 5.620456 130 126 101
-2.314756 -3.088291 9.724805 131 127 102
-3.042211 -4.222929 13.056602 127 123 94
-0.951588 -1.046685 3.562502 123 120 89
-2.611519 -0.122951 7.889550 218 214 211
-1.940186 -0.032940 5.707784 222 218 215
-0.772479 0.143339 1.893683 225 221 218
-0.771199 0.139969 1.892967 163 159 156
-2.178127 -0.103047 6.518217 107 106 101
-3.496935 -0.345878 10.868394 101 100 95
-2.995277 -0.273521 9.233101 110 109 104
-3.154384 -0.318997 9.773658 195 194 189
-1.997727 -0.113629 5.965742 220 219 214
-2.563486 -0.249401 7.862665 216 215 210
-1.167451 0.022292 3.243512 215 214 209
-3.343807 -0.516831 10.556935 215 215 207
-2.287602 -0.279184 7.030995 215 215 205
-3.089217 -0.490556 9.737183 216 216 206
-3.083292 -0.506152 9.733867 216 216 206
-2.354907 -0.334167 7.294418 215 215 205
-1.438796 0.059512 4.078876 218 214 211
-3.595865 -0.266691 11.165890 219 215 212
-1.931089 -0.030224 5.711267 223 219 216
-0.934657 0.118065 2.439856 219 215 212
-0.933057 0.113852 2.438960 153 152 148
-1.917000 -0.067313 5.703381 103 102 97
-3.473413 -0.358100 10.871211 109 108 103
-3.057140 -0.299192 9.507511 203 202 197
-3.296720 -0.361346 10.320031 220 219 214
-2.054627 -0.166911 6.232696 215 214 209
-2.683261 -0.359633 8.393681 215 215 207
-2.678137 -0.373122 8.390813 216 216 206
-2.673014 -0.386610 8.387945 216 216 206
-0.587372 0.127632 1.340910 217 217 207
-0.586412 0.125105 1.340373 216 216 206
-0.935325 0.131938 2.444125 219 215 212
-2.338758 -0.079054 7.080675 219 215 212
-0.932124 0.123512 2.442334 224 220 217
-0.930524 0.119299 2.441438 223 219 216
-1.091340 0.083173 2.984511 105 104 99
-3.048015 -0.279574 9.516436 109 108 103
-3.123779 -0.309863 9.785374 211 210 205
-3.361958 -0.372068 10.598279 219 218 213
-2.664903 -0.369172 8.395879 214 214 204
-2.659780 -0.382660 8.393011 213 213 203
-0.584893 0.128372 1.341859 214 214 204
-2.252302 -0.306659 7.032285 217 217 207
-3.912162 -0.246311 12.283354 216 215 210
-1.758348 0.025417 5.177889 218 214 211
-3.073475 -0.168907 9.544720 220 216 213
-2.080886 -0.039602 6.266102 221 217 214
-1.174216 0.087361 3.262495 223 219 216
-0.598730 0.172066 1.351940 219 215 212
-0.597770 0.169539 1.351403 141 137 134
-1.086379 0.084654 2.986410 103 102 97
-1.573066 -0.005291 4.620342 101 100 95
-3.114401 -0.289699 9.794547 112 111 106
-3.027362 -0.290304 9.518909 219 218 213
-1.321559 0.018190 3.798807 217 216 211
-1.954464 -0.143888 5.968421 215 214 209
-1.950782 -0.153582 5.966360 215 214 209
-2.587046 -0.306815 8.137854 215 214 209
-2.582083 -0.319881 8.135076 215 214 209
-2.656793 -0.351734 8.403813 214 214 206
-2.572156 -0.346015 8.129519 215 215 207
-3.598779 -0.614255 11.654107 215 215 207
-3.908504 -0.713004 12.735149 215 215 207
-1.925006 -0.221439 5.951932 215 215 207
-0.603929 0.193019 1.357187 216 215 210
-3.893137 -0.240632 12.290637 215 214 209
-0.682232 0.171839 1.628325 216 212 209
-2.566695 -0.095494 7.911235 219 215 212
-0.598170 0.177859 1.353964 222 218 215
-0.596251 0.172806 1.352889 214 210 207
-0.595291 0.170279 1.352352 142 138 135
-1.162599 0.072531 3.261058 105 104 99
-1.565623 -0.003069 4.623191 101 100 95
-3.179959 -0.299578 10.072975 116 115 110
-3.173875 -0.315596 10.069569 221 220 215
-1.315357 0.020041 3.801181 217 216 211
-4.270379 -0.611425 13.865650 216 215 210
-2.024853 -0.158025 6.244093 216 215 210
-2.579189 -0.289922 8.145539 216 215 210
-3.051704 -0.409902 9.773878 216 215 210
-2.966360 -0.407258 9.498799 216 215 210
-2.881337 -0.403770 9.223899 215 215 207
-3.271229 -0.513942 10.578682 215 215 207
-1.764981 -0.160202 5.416707 218 218 210
-1.345171 0.116708 3.823714 216 215 210
-0.601450 0.193759 1.358136 216 215 210
-2.326875 -0.012155 7.105596 217 216 211
-0.762347 0.165122 1.903594 217 216 211
-2.313907 -0.046296 7.098337 217 213 210
-2.228016 -0.046305 6.822562 217 213 210
-3.852015 -0.293126 12.285552 219 215 212
-0.837035 0.135637 2.173098 214 210 207
-1.558181 -0.000848 4.626040 102 101 96
-3.325138 -0.323533 10.624447 116 115 110
-3.318733 -0.340394 10.620862 222 221 216
-0.988647 0.082556 2.713360 217 216 211
-4.328519 -0.621437 14.146163 216 215 210
-3.763628 -0.525813 12.236080 217 216 211
-3.042326 -0.389738 9.783051 216 215 210
-1.769745 -0.122207 5.427558 216 215 210
-3.030478 -0.420931 9.776420 217 216 211
-1.763021 -0.139908 5.423795 216 215 210
-1.759659 -0.148759 5.421913 216 215 210
-1.834823 -0.176992 5.691684 217 216 211
-1.439474 -0.087246 4.331898 214 213 208
-2.140599 -0.276436 6.773634 215 214 209
-2.136437 -0.287395 6.771304 215 214 209
-2.599583 -0.424763 8.396738 214 213 208
-1.428588 -0.115904 4.325805 215 214 209
-1.425867 -0.123068 4.324282 213 212 207
-1.423146 -0.130232 4.322759 211 210 205
-1.420424 -0.137396 4.321235 207 206 201
-1.417703 -0.144561 4.319712 208 207 202
-1.642552 -0.230947 5.128666 214 213 208
-0.873313 0.005034 2.421104 210 209 204
-0.795269 0.025683 2.149721 212 211 206
-1.556663 -0.230950 4.852892 213 212 207
-0.868512 -0.007606 2.418417 213 212 207
-1.474617 -0.220838 4.579268 215 215 207
-1.471735 -0.228424 4.577656 216 216 206
-1.468854 -0.236010 4.576043 216 216 206
-1.421085 0.109841 4.100140 215 214 209
-0.680926 0.185359 1.633047 215 214 209
-1.170577 0.125041 3.275655 216 215 210
-1.821576 0.039697 5.464753 217 216 211
-3.855086 -0.229275 12.305203 216 215 210
-3.929035 -0.259492 12.574684 216 212 209
-2.866500 -0.133080 9.014790 217 213 210
-4.075973 -0.322456 13.113108 221 217 214
-0.753921 0.152630 1.901994 224 220 217
-1.075337 0.099208 2.994258 206 202 199
-0.830434 0.129164 2.172910 105 104 99
-1.630931 -0.012404 4.901866 103 102 97
-3.468662 -0.346994 11.176553 119 118 113
-3.461937 -0.364698 11.172789 224 223 218
-2.563475 -0.256135 8.160911 217 216 211
-1.214276 0.015188 3.528205 217 216 211
-1.212035 0.009288 3.526951 216 215 210
-3.172360 -0.452351 10.326437 217 216 211
-3.087683 -0.450375 10.050952 214 213 208
-1.278942 -0.039467 3.792490 218 217 212
-1.276541 -0.045788 3.791146 215 214 209
-1.274140 -0.052110 3.789802 218 217 212
-2.669104 -0.427848 8.676214 212 211 206
-1.346809 -0.085697 4.058567 205 204 199
-1.421559 -0.113806 4.328496 194 193 188
-1.418838 -0.120970 4.326973 178 177 172
-1.416116 -0.128134 4.325449 171 170 165
-1.336564 -0.112667 4.052832 171 170 165
-1.334003 -0.119410 4.051399 179 178 173
-1.484463 -0.173101 4.591794 195 194 189
-0.870779 0.010481 2.423582 203 202 197
-1.173939 -0.091003 3.505628 209 208 203
-1.019639 -0.047424 2.963082 211 210 205
-4.128379 -1.084071 14.054803 210 209 205
-3.211377 -0.799425 10.804456 210 209 204
-1.089426 -0.088597 3.230234 212 211 206
-1.087345 -0.094075 3.229069 215 215 207
-1.577873 0.094626 4.651092 216 215 210
-3.287366 -0.102309 10.406010 215 214 209
-0.676913 0.183274 1.633527 215 214 209
-3.924648 -0.214066 12.590549 215 214 209
-0.674673 0.177377 1.632274 215 214 209
-0.673553 0.174429 1.631647 217 213 210
-1.722066 0.026861 5.188760 218 214 211
-4.297449 -0.351046 13.941614 220 216 213
-1.233138 0.081810 3.544218 226 222 219
-1.230897 0.075910 3.542963 202 198 195
-1.226415 0.064111 3.540455 103 102 97
-1.623075 -0.010059 4.904873 104 103 98
-3.849391 -0.412188 12.548427 123 122 117
-3.524026 -0.374011 11.452394 225 224 219
-3.890581 -0.527433 12.799962 215 214 209
-2.231055 -0.198954 7.073012 216 215 210
-2.383730 -0.244388 7.615427 213 212 207
-1.279944 -0.018653 3.798896 218 217 212
-1.277543 -0.024974 3.797552 218 217 212
-1.275142 -0.031295 3.796208 216 215 210
-1.272740 -0.037616 3.794864 212 211 206
-1.270339 -0.043937 3.793520 204 203 198
-3.357141 -0.589668 11.130505 194 193 188
-1.111102 -0.015780 3.247432 178 177 172
-1.417251 -0.104543 4.332710 152 151 146
-1.414530 -0.111708 4.331187 128 127 122
-1.411809 -0.118872 4.329663 127 126 121
-1.409087 -0.126036 4.328140 124 123 118
-1.406366 -0.133200 4.326617 120 119 114
-1.479901 -0.163294 4.596256 123 122 117
-1.477020 -0.170880 4.594644 122 121 116
-1.701948 -0.249783 5.405980 151 150 145
-1.168151 -0.089275 3.507843 204 203 198
-1.165910 -0.095175 3.506589 203 202 197
-1.163669 -0.101074 3.505335 206 205 201
-1.008916 -0.061112 2.961756 211 210 205
-3.114905 -0.064112 9.866942 216 215 210
-4.325900 -0.213106 13.977809 214 213 208
-4.074670 -0.207082 13.150581 214 213 208
-1.885016 0.035144 5.745501 213 212 207
-1.881494 0.025872 5.743530 213 212 207
-3.085283 -0.142093 9.850363 217 213 210
-3.159686 -0.168691 10.120878 219 215 212
-4.275942 -0.344627 13.949846 221 217 214
-1.225109 0.077638 3.545179 199 195 192
-0.983808 0.109801 2.723509 117 113 110
-1.141101 0.078948 3.269288 102 101 96
-1.615218 -0.007714 4.907881 94 93 88
-1.691383 -0.029674 5.179381 126 125 120
-1.688181 -0.038103 5.177589 222 221 216
-4.027540 -0.553628 13.353072 219 218 213
-1.359190 -0.014321 4.077967 218 217 212
-1.356629 -0.021063 4.076534 217 216 211
-1.276143 -0.010481 3.802614 215 214 209
-1.273742 -0.016802 3.801270 212 211 206
-1.271341 -0.023123 3.799926 205 204 199
-1.268940 -0.029444 3.798582 198 197 192
-1.266538 -0.035765 3.797238 184 183 178
-3.500744 -0.605645 11.684995 161 160 155
-1.107808 -0.008698 3.250654 140 139 134
-2.718613 -0.439978 8.958521 128 127 122
-1.410222 -0.102445 4.335401 130 129 124
-1.483984 -0.130729 4.605557 126 125 120
-1.481103 -0.138315 4.603944 126 125 120
-1.478221 -0.145901 4.602331 119 118 113
-1.475340 -0.153487 4.600718 112 111 106
-1.396615 -0.138267 4.327785 108 107 102
-1.469577 -0.168658 4.597493 94 93 88
-1.542218 -0.199893 4.867021 93 92 87
-0.936274 -0.015336 2.696903 113 112 107
-1.160122 -0.093447 3.508805 199 198 193
-1.157881 -0.099346 3.507551 211 210 206
-1.003955 -0.059631 2.963655 213 212 207
-1.002034 -0.064688 2.962580 215 215 207
-1.000113 -0.069744 2.961505 217 217 207
-3.180477 -0.067893 10.147327 214 213 208
-1.715131 0.057085 5.200468 214 213 208
-2.754970 -0.081792 8.762864 213 212 207
-1.708727 0.040227 5.196884 216 212 209
-2.904229 -0.131367 9.304927 218 214 211
-2.499858 -0.089624 7.932293 222 218 215
-1.219321 0.079365 3.547395 201 197 194
-1.137807 0.086030 3.272510 117 113 110
-0.581936 0.171452 1.356560 92 91 86
-1.449456 0.021445 4.363986 98 97 92
-1.683113 -0.027206 5.182547 133 132 127
-1.679911 -0.035635 5.180755 229 228 223
-1.357697 0.001139 4.083367 216 215 210
-1.355136 -0.005603 4.081933 217 216 211
-1.352575 -0.012346 4.080500 213 212 207
-1.272342 -0.002309 3.806332 209 208 203
-1.269941 -0.008630 3.804988 209 208 203
-1.267540 -0.014951 3.803644 192 191 186
-1.265139 -0.021272 3.802300 170 169 164
-1.262738 -0.027593 3.800956 146 145 140
-1.029724 0.022750 2.982755 131 130 125
-1.027803 0.017694 2.981680 129 128 123
-1.025883 0.012637 2.980605 125 124 119
-1.023962 0.007581 2.979530 120 119 114
-1.022041 0.002525 2.978455 122 121 116
-1.476542 -0.128508 4.608406 116 115 110
-1.473660 -0.136093 4.606793 108 107 102
-1.470778 -0.143679 4.605180 100 99 94
-1.392307 -0.129004 4.331999 96 95 90
-1.540445 -0.181533 4.873434 86 85 80
-1.537403 -0.189541 4.871731 77 76 71
-1.534362 -0.197548 4.870029 70 69 64
-1.006676 -0.037926 2.969854 66 65 60
-1.229122 -0.116088 3.782141 77 76 71
-3.167071 -0.766959 10.827604 195 194 189
-3.748410 -1.006593 12.987069 206 206 198
-1.590260 -0.271648 5.130576 206 206 198
-1.587058 -0.280077 5.128784 209 209 201
-3.325683 -0.079652 10.702713 214 213 208
-2.741322 -0.077719 8.768088 215 214 209
-3.054679 -0.132959 9.862078 218 214 211
-2.969254 -0.137801 9.584615 219 215 212
-2.328772 -0.063569 7.388927 220 216 213
-1.136594 0.098590 3.276897 225 221 218
-1.292552 0.069074 3.823489 199 195 192
-0.816994 0.137397 2.179412 116 112 109
-1.599505 -0.003024 4.913896 94 93 88
-1.674842 -0.024737 5.185713 123 122 117
-1.671640 -0.033166 5.183921 218 217 212
-1.356204 0.016599 4.088766 217 216 211
-1.353643 0.009856 4.087333 216 215 210
-1.273343 0.018506 3.812738 214 213 208
-1.270942 0.012184 3.811394 209 208 203
-1.268541 0.005863 3.810050 198 197 192
-1.266140 -0.000458 3.808706 184 183 178
-1.263739 -0.006779 3.807362 167 166 161
-1.261338 -0.013100 3.806018 144 143 138
-1.412492 -0.055264 4.349921 130 129 124
-1.409770 -0.062428 4.348398 132 131 126
-1.330592 -0.050828 4.074431 128 127 122
-1.328031 -0.057570 4.072997 124 123 118
-1.325469 -0.064313 4.071564 123 122 117
-1.019001 0.009062 2.981429 117 116 111
-1.017080 0.004005 2.980354 102 101 96
-1.469099 -0.126286 4.611255 98 97 92
-1.164232 -0.048695 3.522016 85 84 79
-1.161991 -0.054595 3.520762 67 66 61
-1.385278 -0.126906 4.334689 56 55 50
-1.382557 -0.134071 4.333166 50 49 44
-0.702293 0.055480 1.885562 45 44 39
-1.740026 -0.293227 5.681497 60 59 54
-0.773788 0.023652 2.155229 192 191 186
-0.772348 0.019860 2.154423 198 198 190
-1.508255 -0.243248 4.862822 194 194 186
-1.284490 -0.172196 4.048627 197 197 189
-1.651844 -1.845647 7.010041 165 163 150
-1.372372 -1.481156 5.705366 160 158 145
-2.629955 -3.231494 11.691205 162 160 147
-2.731944 -3.403088 12.207590 157 158 144
-2.615224 -3.270275 11.682960 155 156 142
-0.542285 -0.365756 1.796004 153 155 144
-1.570749 -1.839091 6.735001 140 141 133
-1.242205 -1.383743 5.173210 22 24 19
-0.429732 -0.221973 1.273706 65 67 62
-2.678143 -3.544725 12.177477 142 144 133
-1.709324 -2.134416 7.501514 205 206 190
-0.959214 -1.028515 3.866565 230 229 209
-0.956653 -1.035258 3.865132 180 177 160
-0.954092 -1.042000 3.863698 158 152 136
-0.582240 -0.480616 2.048017 150 144 128
-0.580800 -0.484408 2.047211 144 139 120
-1.418327 -1.800266 6.190388 145 140 120
-0.421094 -0.244714 1.268871 142 137 115
-1.045516 -1.241408 4.374170 139 135 110
-2.809104 -4.080138 13.169378 137 133 108
-3.389186 -0.082815 10.983890 214 213 208
-2.009172 0.004327 6.300797 215 214 209
-3.587056 -0.218403 11.784760 216 215 210
-2.317192 -0.060113 7.393360 220 219 214
-0.657503 0.166089 1.633569 196 195 190
-1.513523 0.012481 4.643135 101 100 95
-1.666572 -0.022269 5.188879 135 134 129
-1.663370 -0.030698 5.187087 228 227 222
-1.349588 0.018574 4.091299 213 212 207
-1.347027 0.011831 4.089865 207 206 201
-1.267141 0.020357 3.815112 202 201 196
-1.264740 0.014036 3.813768 178 177 172
-1.262339 0.007714 3.812424 160 159 154
-1.259938 0.001393 3.811080 148 147 142
-1.410905 -0.038837 4.355659 141 140 135
-1.408184 -0.046001 4.354135 136 135 130
-1.329099 -0.035368 4.079830 131 130 125
-1.326537 -0.042110 4.078397 126 125 120
-1.323976 -0.048853 4.076963 122 121 116
-1.017881 0.020655 2.985478 110 109 104
-1.015961 0.015599 2.984403 101 100 95
-1.014040 0.010542 2.983328 88 87 82
-1.464537 -0.116479 4.615717 72 71 66
-0.859713 0.041928 2.436869 64 63 58
-1.383691 -0.110480 4.340427 50 49 44
-1.380970 -0.117644 4.338903 37 36 31
-1.378249 -0.124808 4.337380 50 49 44
-1.375527 -0.131973 4.335857 74 73 68
-1.372806 -0.139137 4.334334 100 99 94
-1.072957 -0.053187 3.246344 102 101 96
-1.441485 -0.177166 4.602815 92 91 86
-1.438604 -0.184752 4.601202 58 57 52
-0.915590 -0.029803 2.698184 199 198 193
-0.912069 -0.039072 2.696213 199 198 193
-1.968730 -2.290472 8.578560 165 163 148
-2.229962 -2.696919 9.874975 166 164 151
-2.712092 -3.397163 12.215190 160 161 147
-1.568229 -1.812998 6.744114 156 157 143
-0.538979 -0.364770 1.797269 151 153 140
-1.936067 -2.376461 8.560278 142 143 135
-1.984246 -2.468457 8.817285 24 26 21
-0.800373 -0.770789 3.093775 60 62 57
-2.339434 -3.065222 10.626368 155 157 146
-1.749899 -2.210064 7.765958 200 201 185
-0.952598 -1.026541 3.869098 225 224 204
-0.950037 -1.033283 3.867664 183 180 161
-0.947476 -1.040026 3.866231 158 153 134
-0.683204 -0.641581 2.568114 153 148 129
-2.716539 -3.823120 12.677759 148 143 124
-1.407988 -1.797180 6.194346 146 141 121
-0.418615 -0.243974 1.269820 142 137 115
-1.038073 -1.239187 4.377019 136 131 109
-1.035191 -1.246773 4.375406 134 129 109
-1.924097 0.027069 6.032103 213 212 207
-1.920415 0.017375 6.030042 214 213 208
-3.568858 -0.212972 11.791726 217 216 211
-2.776688 -0.122230 9.044039 222 221 216
-1.282549 0.079097 3.829581 223 222 217
-1.280148 0.072776 3.828237 185 184 179
-1.277747 0.066455 3.826893 107 106 101
-1.583792 0.001666 4.919911 97 96 91
-1.658302 -0.019800 5.192045 123 122 117
-1.655100 -0.028229 5.190253 215 214 209
-1.265741 0.034850 3.820174 198 197 192
-1.263340 0.028529 3.818830 175 174 169
-1.260939 0.022208 3.817486 151 150 145
-1.258538 0.015887 3.816142 133 132 127
-1.332728 -0.006423 4.088097 129 128 123
-1.330167 -0.013165 4.086663 135 134 129
-1.327605 -0.019908 4.085230 132 131 126
-1.325044 -0.026651 4.083796 123 122 117
-1.474383 -0.068742 4.628243 115 114 109
-1.319922 -0.040136 4.080929 108 107 102
-1.014841 0.027192 2.988452 92 91 86
-1.012920 0.022136 2.987377 84 83 78
-1.011000 0.017079 2.986302 61 60 55
-4.015058 -0.779274 13.884909 67 66 61
-4.006731 -0.801194 13.880249 51 50 45
-1.379384 -0.101218 4.344641 72 71 66
-1.376662 -0.108382 4.343117 101 100 95
-1.373941 -0.115546 4.341594 160 159 154
-1.371219 -0.122710 4.340071 194 193 188
-1.368498 -0.129875 4.338548 212 211 206
-1.365777 -0.137039 4.337025 214 213 208
-1.806265 -0.283134 5.966151 208 207 202
-1.360334 -0.151367 4.333978 187 186 181
-1.431161 -0.182530 4.604051 220 219 214
-1.428279 -0.190116 4.602438 187 186 181
-0.911043 -0.028445 2.699925 87 86 81
-1.055097 -0.084450 3.241414 193 192 187
-1.053017 -0.089928 3.240249 182 181 176
-2.552305 -3.106766 11.453177 165 163 150
-2.213832 -2.692104 9.881150 162 160 147
-0.969034 -0.963882 3.884532 157 158 144
-2.738243 -3.487748 12.478969 157 158 144
-1.659800 -1.974442 7.266752 150 152 139
-1.014720 -1.061230 4.140533 143 144 136
-1.969771 -2.464136 8.822826 24 26 21
-0.797079 -0.763707 3.096997 25 27 24
-0.794999 -0.769185 3.095833 66 68 63
-2.480251 -3.296456 11.412847 160 162 151
-2.578183 -3.473880 11.928521 211 212 198
-0.945983 -1.024566 3.871630 226 225 207
-0.943421 -1.031309 3.870197 184 181 162
-0.940860 -1.038051 3.868763 158 153 134
-0.574800 -0.478396 2.050865 150 145 126
-0.780433 -0.807530 3.087680 146 141 122
-1.397650 -1.794094 6.198303 149 144 124
-2.165367 -3.037314 10.084453 144 139 117
-2.364114 -3.384577 11.117414 141 136 116
-0.567599 -0.497353 2.046835 134 129 109
-2.947645 -0.063771 9.614618 214 213 208
-2.548184 -0.033351 8.236936 213 212 207
-1.914586 0.029908 6.035744 215 214 209
-3.479287 -0.179031 11.527924 216 215 210
-1.985480 0.000136 6.306245 216 215 210
-4.012208 -0.290920 13.441946 216 215 210
-1.273946 0.074627 3.830611 181 180 175
-4.041309 -0.430717 13.689054 98 97 92
-4.033143 -0.452216 13.684483 164 163 158
-1.336357 0.022523 4.096364 143 142 137
-1.333796 0.015780 4.094930 131 130 125
-1.254737 0.024059 3.819860 139 138 133
-1.328673 0.002295 4.092063 136 135 130
-1.326112 -0.004448 4.090629 130 129 124
-1.323551 -0.011191 4.089196 120 119 114
-1.320990 -0.017933 4.087762 115 114 109
-1.469822 -0.058935 4.632705 98 97 92
-1.466940 -0.066521 4.631092 81 80 75
-1.464059 -0.074106 4.629480 74 73 68
-4.010203 -0.729014 13.902463 62 61 56
-4.001877 -0.750934 13.897802 62 61 56
-3.993551 -0.772855 13.893142 96 95 90
-3.985224 -0.794775 13.888482 142 141 136
-1.372354 -0.099120 4.347331 216 215 210
-1.369633 -0.106284 4.345808 213 212 207
-1.366912 -0.113448 4.344285 218 217 212
-1.364190 -0.120612 4.342762 209 208 203
-2.025443 -0.327474 6.790252 212 211 206
-0.982991 -0.042115 2.975301 208 207 202
-0.981070 -0.047172 2.974226 200 199 194
-1.923651 -0.379044 6.502457 83 82 77
-1.049723 -0.082845 3.243471 100 99 94
-1.047642 -0.088323 3.242306 195 194 189
-0.591243 -0.424205 2.063575 165 163 150
-2.197702 -2.687290 9.887324 160 158 145
-0.962418 -0.961907 3.887065 158 159 145
-2.717977 -3.481699 12.486726 156 156 144
-1.647807 -1.970863 7.271343 150 152 141
-1.007691 -1.059132 4.143224 142 143 135
-2.060888 -2.614652 9.349108 24 26 21
-0.791705 -0.762103 3.099055 24 26 23
-0.789624 -0.767580 3.097890 68 71 64
-1.990799 -2.582758 9.079059 155 157 146
-2.558744 -3.468078 11.935962 212 213 199
-0.991362 -1.102117 4.134085 228 227 209
-0.988641 -1.109281 4.132562 177 174 155
-0.675870 -0.634232 2.572581 160 155 136
-2.683186 -3.789699 12.698073 152 147 128
-0.569640 -0.481077 2.051483 144 139 119
-1.182533 -1.464474 5.164365 145 140 118
-1.332274 -1.719490 5.940636 137 132 110
-2.345916 -3.379145 11.124380 139 134 112
-2.744583 -4.060881 13.194077 138 133 111
-3.390222 -0.146180 11.263625 216 215 210
-2.837458 -0.095012 9.335769 216 215 210
-0.728750 0.163894 1.912836 225 224 219
-1.270145 0.082800 3.834329 239 238 233
-1.190379 0.088004 3.558474 189 188 183
-1.265343 0.070157 3.831642 116 115 110
-1.414310 0.031935 4.377440 101 100 95
-1.258140 0.051194 3.827610 95 94 89
-4.165178 -0.473186 14.240685 76 75 70
-4.003883 -0.467418 13.687986 131 130 125
-3.995717 -0.488917 13.683416 149 148 143
-1.324619 0.011012 4.096029 129 128 123
-1.322058 0.004269 4.094595 130 129 124
-1.319497 -0.002473 4.093162 122 121 116
-1.316935 -0.009216 4.091728 95 94 89
-1.314374 -0.015959 4.090295 94 93 88
-1.311813 -0.022701 4.088861 82 81 76
-4.013676 -0.656835 13.924677 74 73 68
-4.005349 -0.678755 13.920017 76 75 70
-3.997023 -0.700675 13.915356 84 83 78
-3.988696 -0.722595 13.910696 129 128 123
-3.980370 -0.744515 13.906035 184 183 178
-3.972043 -0.766435 13.901375 211 210 205
-3.963717 -0.788356 13.896714 207 206 201
-1.365325 -0.097022 4.350022 217 216 211
-1.436445 -0.124986 4.621039 217 216 211
-1.138838 -0.047684 3.529625 224 223 218
-1.136597 -0.053584 3.528371 219 218 213
-1.427801 -0.147744 4.616200 220 219 214
-1.132115 -0.065383 3.525862 219 218 213
-1.129874 -0.071282 3.524608 218 217 212
-1.419156 -0.170501 4.611362 216 215 210
-1.488995 -0.201839 4.881662 207 206 201
-1.485954 -0.209846 4.879959 194 193 188
-1.985552 -0.400975 6.778059 165 164 159
-0.970347 -0.060860 2.972900 139 138 133
-1.873042 -2.203538 8.333552 166 164 151
-0.640866 -0.497859 2.326065 165 163 150
-0.639266 -0.502072 2.325169 160 158 145
-2.758580 -3.530603 12.759763 157 158 144
-1.587594 -1.879030 7.017735 155 155 143
-1.372301 -1.585027 5.972394 152 154 143
-1.000661 -1.057034 4.145915 140 141 133
-2.097968 -2.687379 9.615494 26 28 23
-2.866729 -3.891477 13.513924 77 80 73
-1.975911 -2.578314 9.084758 163 165 154
-2.487564 -3.383296 11.683233 207 208 194
-0.984333 -1.100019 4.136776 234 233 215
-0.621662 -0.548416 2.315316 178 175 156
-0.568800 -0.472384 2.054519 160 155 136
-2.662506 -3.783527 12.705989 151 146 127
-2.654500 -3.804604 12.701508 140 135 115
-1.173849 -1.461882 5.167689 151 146 124
-1.271729 -1.634596 5.684893 140 135 113
-0.712981 -0.738402 2.828848 137 132 110
-0.861961 -0.991783 3.605863 139 134 112
-2.288806 0.000919 7.421127 213 212 207
-2.279840 -0.022685 7.416109 221 220 215
-1.268745 0.097293 3.839391 216 215 210
-1.343616 0.080413 4.112897 209 208 203
-1.341054 0.073670 4.111463 202 201 196
-1.184591 0.089731 3.560690 161 160 155
-1.182350 0.083832 3.559435 114 113 108
-1.254339 0.059366 3.831328 99 98 93
-1.251938 0.053045 3.829984 94 93 88
-3.838655 -0.412605 13.152188 50 49 44
-2.842934 -0.252154 9.584076 57 56 51
-2.837170 -0.267328 9.580849 94 93 88
-1.318003 0.012986 4.098561 132 131 126
-1.315442 0.006244 4.097128 117 116 111
-2.895227 -0.328470 9.844944 95 94 89
-2.814113 -0.328027 9.567944 95 94 89
-2.808349 -0.343201 9.564718 116 115 110
-4.000495 -0.628495 13.937570 159 158 153
-3.992169 -0.650415 13.932910 143 142 137
-3.983842 -0.672336 13.928250 150 149 144
-3.975516 -0.694256 13.923589 214 213 208
-1.146495 -0.010560 3.539367 217 216 211
-1.292391 -0.054440 4.084226 211 210 205
-1.363738 -0.080595 4.355759 222 221 216
-1.361017 -0.087759 4.354236 222 221 216
-1.358296 -0.094924 4.352713 221 220 215
-1.282146 -0.081411 4.078492 221 220 215
-2.232068 -0.362433 7.620969 223 222 217
-2.008102 -0.310097 6.800814 222 221 216
-2.003939 -0.321055 6.798484 224 223 218
-0.907964 0.003434 2.711059 219 218 213
-1.487222 -0.183479 4.888074 225 224 219
-0.831976 0.017371 2.436928 223 222 217
-1.481139 -0.199494 4.884669 221 220 215
-1.478097 -0.207501 4.882967 225 224 219
-1.547042 -0.239980 5.153156 214 213 208
-0.753748 0.025412 2.161543 206 205 200
-2.042304 -0.434039 7.051557 153 152 147
-0.965386 -0.059379 2.974799 62 61 56
-2.263046 -2.634698 10.185902 171 169 156
-2.089526 -2.449555 9.393982 174 172 159
-2.030192 -2.391775 9.129172 169 167 154
-2.024428 -2.406949 9.125946 168 166 153
-0.583803 -0.421984 2.066423 163 161 148
-2.165443 -2.677662 9.899673 160 158 145
-0.580922 -0.429567 2.064811 157 158 144
-1.313769 -1.496044 5.717388 152 153 139
-1.362376 -1.582065 5.976193 145 147 136
-1.045761 -1.131685 4.409382 134 135 127
-1.250754 -1.447954 5.450518 26 28 23
-2.844808 -3.884935 13.522316 69 72 65
-2.063998 -2.730742 9.611294 140 142 131
-2.468538 -3.377617 11.690516 184 185 171
-0.619128 -0.542969 2.317794 235 234 216
-0.617528 -0.547182 2.316899 176 173 156
-0.565080 -0.471273 2.055943 159 154 135
-2.591138 -3.696811 12.453935 149 144 125
-2.633820 -3.798431 12.709424 143 138 118
-1.165166 -1.459290 5.171013 148 143 121
-1.814495 -2.531650 8.545245 139 134 112
-1.809051 -2.545982 8.542198 137 132 110
-2.751455 -4.130694 13.470065 140 135 115
-0.591456 0.247379 1.378244 211 210 205
-2.442944 0.227871 7.750303 213 212 207
-3.644018 0.198250 11.902401 212 211 206
-2.674321 0.198680 8.575776 216 215 210
-2.188833 0.197210 6.912105 215 214 209
-2.264571 0.183827 7.186486 215 214 209
-2.260248 0.172447 7.184067 213 212 207
-3.125225 0.109102 10.220089 213 212 207
-3.832481 0.056085 12.703855 212 211 206
-1.451957 0.172252 4.411762 214 213 208
-1.843935 0.140317 5.791104 217 216 211
-4.038237 -0.040557 13.514987 215 214 209
-3.559474 -0.024319 11.855081 214 213 208
-3.160933 -0.009663 10.472065 214 213 208
-2.354725 -0.004374 7.700926 211 210 205
-2.350082 -0.016597 7.698327 211 210 205
-2.345439 -0.028821 7.695728 211 210 205
-1.339561 0.089130 4.116863 193 192 187
-1.260142 0.092823 3.840422 174 173 168
-1.257741 0.086502 3.839078 145 144 139
-1.255340 0.080181 3.837734 132 131 126
-3.978029 -0.411830 13.713277 90 89 84
-3.969863 -0.433328 13.708706 52 51 46
-2.828045 -0.247710 9.589775 48 47 42
-2.897698 -0.277114 9.860750 49 48 43
-2.891773 -0.292710 9.857434 72 71 66
-2.885849 -0.308306 9.854118 94 93 88
-1.156393 0.032464 3.550362 135 134 129
-1.154152 0.026565 3.549108 169 168 163
-1.151911 0.020665 3.547854 178 177 172
-1.149670 0.014766 3.546600 183 182 177
-1.147429 0.008866 3.545345 215 214 209
-3.962335 -0.665916 13.936482 210 209 204
-1.216923 -0.020957 3.816231 215 214 209
-1.362152 -0.064168 4.361497 220 219 214
-1.359431 -0.071333 4.359973 223 222 217
-1.356709 -0.078497 4.358450 220 219 214
-1.056487 -0.017776 3.262454 223 222 217
-1.993187 -0.317846 6.802600 222 221 216
-0.903417 0.004792 2.712800 220 219 214
-0.901656 0.000157 2.711815 223 222 217
-1.692485 -0.258390 5.706335 226 225 220
-1.688963 -0.267662 5.704364 221 220 215
-1.538772 -0.237511 5.156321 219 218 213
-0.678615 0.051292 1.891007 221 220 215
-0.747147 0.018939 2.161355 121 120 115
-2.246502 -2.629760 10.192235 168 166 153
-0.640600 -0.474326 2.333709 170 168 155
-2.446318 -2.954808 11.232032 173 171 158
-2.545266 -3.119861 11.751393 171 169 156
-2.432228 -2.991903 11.224145 165 163 150
-2.208074 -2.730926 10.170726 167 165 152
-2.201669 -2.747787 10.167141 163 161 148
-0.577202 -0.428457 2.066235 158 159 145
-1.460364 -1.720553 6.504371 156 157 143
-2.389956 -3.103187 11.200485 146 148 135
-1.038318 -1.129463 4.412231 133 134 126
-1.550986 -1.907523 7.019072 24 27 20
-0.466092 -0.295424 1.540066 64 67 60
-2.099357 -2.804363 9.877886 161 163 152
-2.449513 -3.371939 11.697799 213 214 200
-0.614995 -0.541735 2.319377 232 231 213
-0.613394 -0.545949 2.318481 177 174 157
-0.561360 -0.470163 2.057367 160 154 138
-2.520599 -3.610342 12.201565 151 146 127
-2.663254 -3.873101 12.977379 147 142 122
-1.256389 -1.619225 5.694235 147 142 120
-1.800434 -2.527453 8.550628 144 139 117
-0.405259 -0.242801 1.274028 146 141 121
-1.492707 -2.060947 6.986453 133 128 108
-2.756745 0.242901 8.866763 212 211 206
-4.105625 0.197462 13.572196 212 211 206
-2.740894 0.201172 8.857891 216 215 210
-2.178081 0.200419 6.916221 215 214 209
-2.332892 0.184858 7.467630 215 214 209
-3.121678 0.145828 10.232916 214 213 208
-2.951496 0.120925 9.672905 213 212 207
-1.444928 0.174350 4.414453 211 210 205
-2.227468 0.118878 7.176243 215 214 209
-2.223145 0.107498 7.173824 218 217 212
-1.827793 0.124488 5.790644 217 216 211
-4.071264 -0.104554 13.785343 215 214 209
-1.188701 0.134483 3.573901 214 213 208
-2.496902 -0.018045 8.256566 214 213 208
-2.491938 -0.031111 8.253788 200 199 194
-2.410211 -0.034710 7.975665 173 172 167
-2.405407 -0.047355 7.972976 141 140 135
-1.253940 0.094674 3.842796 130 129 124
-1.251539 0.088353 3.841452 133 132 127
-1.401386 0.059722 4.390082 132 131 126
-1.398665 0.052558 4.388558 131 130 125
-1.016925 0.105383 3.012997 131 130 125
-1.393222 0.038229 4.385512 114 113 108
-0.937600 0.108112 2.736219 93 92 87
-4.024092 -0.440295 13.991320 47 46 41
-1.610547 -0.024317 5.204290 49 48 43
-3.782431 -0.441818 13.158921 56 55 50
-2.427414 -0.200978 8.217673 65 64 59
-1.302211 0.010193 4.102193 112 111 106
-1.299650 0.003450 4.100759 167 166 161
-1.297089 -0.003292 4.099326 200 199 194
-3.001178 -0.382956 10.397851 205 204 199
-1.143882 0.016493 3.548815 207 206 201
-3.136453 -0.449949 10.938324 215 214 209
-1.360565 -0.047742 4.367234 219 218 213
-1.357844 -0.054906 4.365711 222 221 216
-1.355123 -0.062070 4.364187 219 218 213
-1.422761 -0.095564 4.634425 222 221 216
-1.556116 -0.167611 5.173824 222 221 216
-1.046951 -0.027128 3.262183 223 222 217
-0.828509 0.032478 2.442780 222 221 216
-0.826909 0.028265 2.441884 223 222 217
-1.399709 -0.156251 4.621522 221 220 215
-1.456301 -0.218826 4.885577 219 218 213
-1.327887 -1.403121 5.743218 173 171 159
-2.223554 -2.641684 10.194983 171 169 156
-0.740352 -0.622721 2.858196 173 171 158
-1.579753 -1.797851 7.046088 171 169 154
-1.575270 -1.809653 7.043578 166 164 149
-1.570787 -1.821454 7.041069 165 163 148
-2.712553 -3.469932 12.792474 166 164 151
-0.522981 -0.348739 1.807013 163 161 146
-0.832392 -0.803534 3.374470 155 156 140
-1.449612 -1.717343 6.508487 154 155 141
-1.445449 -1.728302 6.506157 146 148 135
-1.646492 -2.045270 7.548201 134 136 125
-1.692831 -2.134839 7.806516 25 28 21
-2.083227 -2.799549 9.884061 155 157 144
-2.480989 -3.444871 11.965727 216 217 203
-0.610861 -0.540502 2.320959 225 224 206
-0.609261 -0.544715 2.320063 182 179 162
-0.707701 -0.708678 2.839920 163 157 141
-2.500746 -3.604416 12.209164 156 151 132
-2.244560 -3.221059 10.903878 148 143 123
-2.237675 -3.239184 10.900024 144 139 117
-2.280169 -3.338872 11.156188 145 140 120
-2.174685 -3.193453 10.632388 140 135 115
-2.707614 -4.117609 13.486847 134 129 109
-3.368961 0.211851 11.084444 213 212 207
-2.727247 0.205245 8.863115 216 215 210
-2.246562 0.201872 7.197454 215 214 209
-2.400386 0.186137 7.749090 215 214 209
-3.263788 0.145320 10.792808 214 213 208
-3.178630 0.131480 10.512375 213 212 207
-3.172386 0.115041 10.508880 213 212 207
-1.829262 0.155020 5.800040 215 214 209
-2.216302 0.122211 7.180518 213 212 207
-3.459217 0.028767 11.600500 205 204 199
-3.445446 -0.007484 11.592792 216 215 210
-1.114404 0.166202 3.305003 216 215 210
-4.204794 -0.111889 14.345501 213 212 207
-4.196307 -0.134231 14.340751 214 213 208
-1.178430 0.124411 3.573608 141 140 135
-0.641733 0.183926 1.643828 136 135 130
-1.399799 0.076149 4.395819 128 127 122
-1.397078 0.068984 4.394296 132 131 126
-1.394357 0.061820 4.392772 128 127 122
-1.391635 0.054656 4.391249 120 119 114
-1.388914 0.047492 4.389726 111 110 105
-1.461422 0.028031 4.663079 107 106 101
-1.308402 0.045881 4.111893 86 85 80
-4.002585 -0.433876 13.999553 48 47 42
-1.751776 -0.048970 5.756670 60 59 54
-1.300718 0.025653 4.107592 71 70 65
-1.298157 0.018910 4.106159 134 133 128
-1.295595 0.012167 4.104725 203 202 197
-1.293034 0.005425 4.103292 214 213 208
-1.290473 -0.001318 4.101858 215 214 209
-3.132626 -0.410322 10.952164 216 215 210
-3.126061 -0.427605 10.948490 220 219 214
-1.356258 -0.038480 4.371448 223 222 217
-1.280228 -0.028289 4.096124 217 216 211
-1.423963 -0.070585 4.642112 221 220 215
-1.421081 -0.078171 4.640500 222 221 216
-1.418200 -0.085757 4.638887 223 222 217
-1.415318 -0.093343 4.637274 222 221 216
-1.331765 -0.102958 4.357739 222 221 216
-1.041577 -0.025524 3.264240 222 221 216
-3.319699 -0.759219 11.987948 222 221 216
-1.095516 -0.093869 3.527200 218 217 212
-1.318376 -1.400283 5.746859 172 170 158
-0.737312 -0.616184 2.861170 172 170 157
-0.735391 -0.621241 2.860095 169 167 154
-1.098653 -1.137340 4.692801 166 164 149
-0.471505 -0.264215 1.548549 166 164 149
-2.233241 -2.778039 10.448766 168 167 149
-2.226676 -2.795322 10.445091 162 160 145
-1.138015 -1.244062 4.947602 158 156 141
-2.316283 -2.980115 10.960784 154 155 139
-2.514230 -3.300384 12.002654 153 154 140
-2.506704 -3.320196 11.998442 141 143 130
-1.837637 -2.347083 8.597957 134 136 125
-1.730738 -2.207813 8.072586 31 34 27
-0.863565 -0.914847 3.630143 63 66 57
-2.770559 -3.887649 13.542739 149 151 138
-2.511637 -3.517556 12.233972 198 199 185
-0.456947 -0.302542 1.540400 221 220 202
-0.605127 -0.543481 2.321646 182 179 162
-0.603527 -0.547694 2.320750 153 147 131
-0.799712 -0.872600 3.361634 147 142 123
-0.698899 -0.717310 2.839669 149 144 122
-2.269017 -3.314893 11.167097 137 132 112
-2.261972 -3.333440 11.163154 140 135 115
-1.864479 -2.697110 9.078519 133 128 108
-1.858715 -2.712285 9.075293 140 135 115
-1.769201 0.232703 5.541839 214 213 208
-1.916434 0.202042 6.090566 215 214 209
-2.383750 0.177493 7.751082 214 213 208
-3.084161 0.139192 10.241543 213 212 207
-2.999897 0.126493 9.961221 213 212 207
-3.065908 0.091139 10.231326 214 213 208
-2.749028 0.093456 9.121329 216 215 210
-2.821123 0.074119 9.394840 213 212 207
-2.815519 0.059366 9.391703 209 208 203
-2.809915 0.044613 9.388567 214 213 208
-1.106949 0.162328 3.305895 208 207 202
-0.721178 0.192418 1.924179 202 201 196
-1.179365 0.143837 3.579587 179 178 173
-0.793595 0.173930 2.197871 132 131 126
-2.613209 -0.054968 8.812150 130 129 124
-1.319714 0.095054 4.124460 129 128 123
-1.317153 0.088311 4.123027 124 123 118
-1.390049 0.071082 4.396986 117 116 111
-1.387327 0.063918 4.395463 109 108 103
-1.309470 0.068083 4.118726 103 102 97
-1.306908 0.061341 4.117293 94 93 88
-1.304347 0.054598 4.115859 71 70 65
-1.301786 0.047855 4.114425 52 51 46
-1.299225 0.041113 4.112992 90 89 84
-3.972752 -0.449377 14.003125 153 152 147
-2.406737 -0.180258 8.230266 218 217 212
-2.401773 -0.193325 8.227488 220 219 214
-1.288980 0.014142 4.107258 207 206 201
-3.276189 -0.400944 11.514819 218 217 212
-3.195769 -0.403524 11.236647 222 221 216
-3.262419 -0.437195 11.507111 224 223 218
-1.273612 -0.026314 4.098656 224 223 218
-1.271051 -0.033057 4.097223 225 224 219
-0.888014 0.004229 2.717037 221 220 215
-0.812240 0.013880 2.441466 220 219 214
-1.230072 -0.140940 4.074286 219 218 213
-1.227510 -0.147682 4.072852 222 221 216
-1.517808 -1.683915 6.800084 172 170 158
-1.253107 -1.335098 5.486133 169 167 154
-2.443640 -3.010975 11.515147 170 168 155
-1.090796 -1.134995 4.695809 169 167 152
-2.119658 -2.609087 9.934856 163 161 146
-1.496193 -1.740816 6.787987 162 160 145
-0.671472 -0.565838 2.595835 159 160 142
-0.465253 -0.272196 1.547776 161 159 144
-0.871770 -0.875069 3.640580 154 152 137
-0.920163 -0.956803 3.900826 151 149 136
-0.917602 -0.963545 3.899392 143 141 129
-1.823576 -2.342886 8.603340 124 124 112
-0.711223 -0.670323 2.851244 27 29 18
-2.507156 -3.471163 12.250175 59 61 48
-2.748638 -3.881106 13.551131 151 151 139
-2.740152 -3.903448 13.546380 191 192 178
-1.147240 -1.404669 5.193719 207 205 190
-0.600993 -0.542247 2.323228 182 179 162
-0.599393 -0.546460 2.322332 156 153 134
-0.548760 -0.470624 2.060833 153 148 128
-0.596192 -0.554886 2.320541 148 143 123
-2.055969 -2.985889 10.132367 144 139 119
-2.243774 -3.328009 11.170120 142 137 117
-1.849590 -2.692667 9.084218 141 136 116
-1.843826 -2.707841 9.080992 133 128 108
-0.818680 0.250870 2.215418 210 209 204
-3.814931 0.237790 12.767317 209 208 203
-3.413773 0.221308 11.375039 212 211 206
-3.014216 0.209042 9.983658 214 213 208
-2.606014 0.174015 8.587437 214 213 208
-3.146371 0.141109 10.524724 213 212 207
-3.140126 0.124669 10.521229 212 211 206
-3.754726 0.079292 12.733619 213 212 207
-2.575273 0.093086 8.570231 215 214 209
-3.878552 -0.010564 13.270025 215 214 209
-3.793902 -0.025494 12.989096 209 208 203
-1.027010 0.175557 3.032670 213 212 207
-0.566183 0.209911 1.373445 186 185 180
-0.717872 0.193405 1.925445 155 154 149
-2.756212 -0.054338 9.372151 129 128 123
-2.750608 -0.069091 9.369015 124 123 118
-1.313099 0.097029 4.126993 121 120 115
-1.385741 0.080345 4.401200 105 104 99
-1.383020 0.073180 4.399677 95 94 89
-1.230532 0.087585 3.847230 91 90 85
-1.228131 0.081264 3.845886 68 67 62
-1.225730 0.074943 3.844542 50 49 44
-3.529808 -0.304903 12.374181 69 68 63
-3.522443 -0.324293 12.370059 127 126 121
-1.218527 0.055980 3.840511 210 209 204
-1.290048 0.036345 4.114091 218 217 212
-1.287487 0.029602 4.112657 216 215 210
-1.064120 0.065331 3.286989 219 218 213
-1.502689 -0.027620 4.933756 215 214 209
-3.258405 -0.395636 11.521626 212 211 206
-2.064286 -0.212531 7.116480 224 223 218
-1.553718 -0.101202 5.195866 224 223 218
-1.550516 -0.109631 5.194074 224 223 218
-1.115312 -0.007821 3.549191 224 223 218
-1.113071 -0.013721 3.547937 222 221 216
-1.110830 -0.019620 3.546683 221 220 215
-1.605867 -0.171836 5.458604 221 220 215
-1.024585 -0.038749 3.264861 222 221 216
-0.811307 0.023540 2.444840 221 220 215
-0.808107 0.015114 2.443048 220 219 214
-1.086180 -0.084515 3.532886 219 218 213
-1.153698 -0.114689 3.804225 218 217 212
-1.499288 -0.244496 5.165401 220 219 214
-1.496086 -0.252925 5.163608 223 222 217
-2.387617 -2.895987 11.267783 170 168 156
-2.432234 -2.986451 11.526305 174 172 159
-2.425029 -3.005420 11.522272 175 173 160
-1.699040 -2.005760 7.846242 168 166 151
-2.717707 -3.482442 13.087381 167 165 150
-1.638092 -1.958291 7.578580 165 163 148
-1.633288 -1.970936 7.575891 154 155 137
-0.867969 -0.866897 3.644298 156 154 139
-0.865568 -0.873218 3.642955 152 150 135
-0.913548 -0.954828 3.903358 140 136 124
-0.910986 -0.961571 3.901925 123 121 108
-0.908425 -0.968314 3.900491 45 43 31
-0.905864 -0.975056 3.899058 27 27 15
-0.903303 -0.981799 3.897624 28 30 17
-0.900741 -0.988542 3.896191 60 62 48
-0.898180 -0.995284 3.894757 139 140 126
-0.895619 -1.002027 3.893323 180 181 167
-0.745759 -0.772785 3.108798 193 191 176
-0.694739 -0.699180 2.846693 170 167 150
-0.595259 -0.545227 2.323915 152 149 130
-0.642278 -0.629366 2.583781 149 144 124
-0.640518 -0.634001 2.582795 153 148 128
-1.991126 -2.900182 9.878118 146 141 121
-1.984882 -2.916622 9.874622 145 140 120
-0.587257 -0.566292 2.319436 144 139 119
-1.207297 -1.636951 5.702616 139 134 114
-3.481601 0.244075 11.663314 211 210 205
-2.769900 0.230833 9.159517 215 214 209
-1.123250 0.236749 3.325151 215 214 209
-2.748125 0.173507 9.147329 215 214 209
-2.665169 0.161826 8.866959 213 212 207
-3.433405 0.117195 11.636338 213 212 207
-1.029732 0.197263 3.038869 213 212 207
-4.172978 -0.002894 14.389675 213 212 207
-4.164491 -0.025236 14.384925 209 208 203
-4.003222 -0.036374 13.826783 191 190 185
-0.717125 0.201131 1.928144 169 168 163
-1.096199 0.165537 3.310010 141 140 135
-1.018208 0.166925 3.032419 126 125 120
-2.596481 -0.019002 8.828513 124 123 118
-2.817007 -0.058570 9.653761 116 115 110
-2.811243 -0.073745 9.650535 105 104 99
-2.805479 -0.088919 9.647308 97 96 91
-1.378712 0.082443 4.403891 88 87 82
-2.788186 -0.134443 9.637630 43 42 37
-1.221929 0.083115 3.848260 73 72 67
-3.814745 -0.325850 13.487351 122 121 116
-3.732750 -0.335001 13.207518 195 194 189
-1.214726 0.064152 3.844229 209 208 203
-3.569721 -0.350774 12.648391 214 213 208
-2.747838 -0.240666 9.615046 211 210 205
-2.876281 -0.315943 10.154815 210 209 204
-1.836919 -0.158244 6.297927 222 221 216
-1.617355 -0.116140 5.473218 222 221 216
-1.613993 -0.124991 5.471336 222 221 216
-1.610631 -0.133841 5.469455 222 221 216
-1.532641 -0.132450 5.191864 222 221 216
-1.529439 -0.140879 5.190072 223 222 217
-1.242453 -0.069564 4.093686 223 222 217
-1.239891 -0.076306 4.092253 223 222 217
-2.649847 -0.498634 9.560199 222 221 216
-1.724347 -0.247892 6.000980 222 221 216
-1.087115 -0.065088 3.538864 221 220 215
-0.805573 0.020561 2.445527 221 220 215
-0.803973 0.016348 2.444631 220 219 214
-1.080392 -0.082787 3.535101 219 218 213
-1.560202 -0.266601 5.441229 218 217 212
-2.109035 -0.475414 7.619928 219 218 213
-2.369420 -2.890556 11.274749 169 167 155
-2.413623 -2.980896 11.533429 170 168 155
-2.406417 -2.999865 11.529396 166 164 151
-2.348284 -2.946198 11.262919 169 167 154
-1.630488 -1.941943 7.586017 164 162 147
-1.625685 -1.954588 7.583329 163 161 146
-0.914616 -0.932626 3.910191 156 154 139
-0.912054 -0.939368 3.908758 148 146 131
-0.909493 -0.946111 3.907324 135 132 117
-0.906932 -0.952854 3.905891 130 126 114
-0.904371 -0.959596 3.904457 32 28 16
-0.901809 -0.966339 3.903024 27 25 12
-0.899248 -0.973082 3.901590 38 39 25
-0.896687 -0.979824 3.900157 28 29 15
-0.894126 -0.986567 3.898723 96 97 83
-0.891565 -0.993310 3.897289 228 229 215
-0.889003 -1.000052 3.895856 205 206 190
-0.837756 -0.928257 3.633233 178 176 161
-0.738303 -0.776659 3.109691 165 162 145
