ply
format ascii 1.0
element vertex 1229
property float x
property float y
property float z
property uchar red
property uchar green
property uchar blue
end_header
-1.803917 1.115885 6.938144 233 226 216
-0.687481 0.439350 2.731712 232 228 217
-2.337441 1.513846 9.412515 232 228 217
-1.772443 1.155681 7.185581 221 217 206
-1.942334 1.275069 7.927892 218 214 203
-1.190075 0.797516 4.958646 214 212 199
-0.747492 0.518943 3.226586 93 91 78
-1.132224 0.797516 4.958646 109 105 94
-0.641623 0.283069 1.741963 235 228 209
-2.261479 1.006823 6.195832 228 225 206
-1.801642 0.805780 4.958646 230 225 206
-4.388580 1.971828 12.134324 229 224 205
-1.606958 0.725363 4.463772 223 218 199
-1.688183 0.765571 4.711209 211 206 187
-1.945089 0.886197 5.453521 182 177 158
-1.584639 0.725363 4.463772 155 150 131
-1.577199 0.725363 4.463772 130 127 108
-4.615299 2.132662 13.124073 117 114 95
-4.160410 1.931619 11.886887 115 112 95
-4.485361 2.092453 12.876635 114 111 96
-4.206566 1.971828 12.134324 115 112 97
-4.015610 1.891411 11.639450 114 110 98
-3.316584 1.569742 9.659952 115 111 99
-3.215943 1.529534 9.412515 113 109 97
-3.116127 1.489325 9.165078 110 106 94
-2.933419 1.408908 8.670204 101 97 85
-2.835665 1.368700 8.422767 88 86 73
-2.738735 1.328491 8.175329 77 75 62
-4.374691 2.132662 13.124073 59 59 47
-0.653186 0.323278 1.989400 63 65 52
-1.296507 0.644946 3.968898 95 99 85
-2.335314 1.167657 7.185581 137 141 127
-1.507587 0.765571 4.711209 236 234 222
-3.207365 1.690368 10.402264 243 234 225
-0.989486 0.524320 3.226586 234 225 216
-1.738792 0.926406 5.700958 225 216 207
-1.053787 0.564529 3.474023 197 188 179
-1.570502 0.845989 5.206084 128 119 110
-3.120679 1.690368 10.402264 114 105 98
-1.626967 0.886197 5.453521 187 178 171
-2.351941 1.288282 7.927892 235 226 219
-1.097831 0.604737 3.721461 234 225 218
-1.007467 0.564529 3.474023 234 225 216
-1.734833 1.006823 6.195832 235 226 217
-3.094830 1.851202 11.392012 235 226 217
-0.822779 0.524320 3.226586 230 226 215
-1.497013 0.966614 5.948395 230 226 215
-3.281018 2.132662 13.124073 233 229 218
-0.673822 0.443903 2.731712 228 224 213
-1.578601 1.047031 6.443269 221 217 206
-1.688282 1.127448 6.938144 219 215 204
-1.178198 0.926406 5.700958 222 213 206
-1.473044 1.167657 7.185581 222 213 206
-1.968875 1.810993 11.144575 252 243 234
-1.631503 1.529534 9.412515 241 235 223
-2.084263 2.012036 12.381761 244 240 228
-0.532387 0.524320 3.226586 239 235 223
-1.006181 0.448456 2.731712 232 225 209
-1.273809 0.570319 3.474023 229 224 204
-1.358333 0.610940 3.721461 227 224 205
-1.531935 0.692182 4.216335 224 219 200
-3.135724 1.423358 8.670204 220 215 196
-3.032196 1.382738 8.422767 208 203 184
-2.840828 1.301496 7.927892 179 174 155
-2.827615 1.301496 7.927892 148 143 124
-2.638721 1.220254 7.433018 126 121 102
-2.626333 1.220254 7.433018 115 112 93
-2.526929 1.179633 7.185581 113 110 91
-2.428350 1.139012 6.938144 110 107 90
-2.330596 1.098391 6.690706 110 107 92
-2.479025 1.179633 7.185581 113 109 97
-1.702469 0.814044 4.958646 110 106 94
-0.764253 0.367214 2.236838 103 99 87
-4.462185 2.154535 13.124073 95 91 79
-4.189163 2.032672 12.381761 84 80 68
-2.835665 1.382738 8.422767 68 64 52
-2.738735 1.342117 8.175329 54 50 38
-4.044775 1.992052 12.134324 51 49 37
-1.152218 0.570319 3.474023 52 52 40
-2.846717 1.423358 8.670204 75 77 64
-1.296507 0.651561 3.968898 111 115 101
-1.370309 0.692182 4.216335 161 165 151
-3.843427 1.951431 11.886887 226 228 215
-1.515439 0.773424 4.711209 236 236 224
-0.865042 0.448456 2.731712 243 233 224
-1.398649 0.732803 4.463772 242 233 224
-0.537105 0.285972 1.741963 242 233 224
-0.610083 0.326593 1.989400 235 226 217
-0.978731 0.529698 3.226586 178 169 160
-0.671051 0.367214 2.236838 152 143 136
-3.324798 1.829568 11.144575 224 215 208
-3.944595 2.195156 13.371510 235 226 219
-0.560348 0.326593 1.989400 235 226 217
-2.355405 1.423358 8.670204 235 226 217
-2.207339 1.342117 8.175329 234 225 216
-3.281018 2.154535 13.124073 232 228 217
-0.673822 0.448456 2.731712 230 226 215
-1.154246 0.773424 4.711209 225 221 210
-1.688282 1.139012 6.938144 220 216 205
-1.368230 0.935907 5.700958 216 214 201
-2.092693 1.504600 9.165078 162 158 147
-0.368716 0.285972 1.741963 191 187 176
-0.661450 0.529698 3.226586 221 212 205
-0.514472 0.448456 2.731712 214 205 198
-0.879426 0.773424 4.711209 174 165 158
-1.530136 1.382738 8.422767 182 173 166
-0.657458 0.610940 3.721461 237 228 219
-1.917655 1.870189 11.392012 243 241 228
-1.006181 0.453009 2.731712 229 222 206
-4.478070 2.053309 12.381761 205 200 181
-4.279279 1.971242 11.886887 177 172 153
-1.422188 0.658176 3.968898 150 145 126
-2.990082 1.396775 8.422767 129 124 105
-2.801189 1.314709 7.927892 128 125 106
-2.787975 1.314709 7.927892 122 119 100
-2.601556 1.232642 7.433018 119 116 99
-2.502977 1.191609 7.185581 122 119 104
-2.405223 1.150575 6.938144 130 127 112
-2.222928 1.068509 6.443269 124 120 108
-2.127236 1.027475 6.195832 118 114 102
-4.145894 2.012275 12.134324 111 107 95
-3.873284 1.889175 11.392012 100 96 84
-3.686865 1.807109 10.897138 79 75 63
-3.585399 1.766075 10.649701 61 57 45
-3.236084 1.601942 9.659952 57 53 41
-3.137505 1.560909 9.412515 54 52 40
-1.309736 0.658176 3.968898 62 62 50
-2.765475 1.396775 8.422767 81 83 70
-0.569041 0.288876 1.741963 116 118 105
-1.370309 0.699209 4.216335 174 178 164
-2.563352 1.314709 7.927892 230 232 219
-2.299386 1.191609 7.185581 241 237 226
-1.335173 0.699209 4.216335 244 234 225
-1.553709 0.822309 4.958646 241 232 223
-4.167454 2.217442 13.371510 241 234 224
-2.673313 1.437809 8.670204 240 233 223
-0.978731 0.535076 3.226586 175 168 158
-1.047997 0.576109 3.474023 154 147 139
-1.339132 0.740242 4.463772 202 195 187
-2.808067 1.560909 9.412515 239 232 224
-0.801302 0.453009 2.731712 236 227 218
-1.001677 0.576109 3.474023 234 225 216
-1.847071 1.068509 6.443269 234 225 216
-1.319139 0.781276 4.711209 235 226 217
-0.809335 0.494042 2.979149 235 226 217
-1.806491 1.109542 6.690706 233 226 216
-2.829016 1.889175 11.392012 234 230 218
-1.447443 0.986442 5.948395 222 218 207
-1.557123 1.068509 6.443269 217 213 202
-0.630587 0.494042 2.979149 108 106 93
-0.365812 0.288876 1.741963 137 133 122
-0.362909 0.288876 1.741963 172 165 155
-2.252075 1.807109 10.897138 203 196 188
-2.117469 1.848142 11.144575 211 202 195
-0.848018 0.781276 4.711209 190 181 174
-2.340014 2.217442 13.371510 242 234 223
-4.742894 2.156836 12.876635 229 222 204
-4.812160 2.198282 13.124073 230 223 204
-1.809906 0.830573 4.958646 230 224 202
-0.902620 0.416116 2.484275 219 214 195
-0.630010 0.291779 1.741963 192 187 168
-0.894339 0.416116 2.484275 167 162 143
-2.663498 1.245031 7.433018 158 153 134
-2.562857 1.203585 7.185581 156 151 132
-2.463041 1.162139 6.938144 156 151 132
-2.888616 1.369368 8.175329 164 159 140
-2.787975 1.327922 7.927892 169 163 147
-2.601556 1.245031 7.433018 169 163 147
-2.589168 1.245031 7.433018 174 168 152
-2.491001 1.203585 7.185581 174 168 152
-2.393660 1.162139 6.938144 172 166 150
-1.192748 0.581899 3.474023 168 162 148
-2.201450 1.079248 6.443269 165 159 145
-3.957413 1.949608 11.639450 155 149 135
-3.770581 1.866716 11.144575 137 129 116
-3.502095 1.742379 10.402264 130 122 109
-3.318975 1.659488 9.907390 120 112 99
-3.137505 1.576596 9.412515 109 103 91
-1.726684 0.872019 5.206084 106 104 92
-1.636353 0.830573 4.958646 94 94 84
-2.335314 1.203585 7.185581 192 194 181
-1.197070 0.623345 3.721461 239 232 222
-0.953328 0.499007 2.979149 242 233 224
-2.731114 1.452259 8.670204 242 233 224
-1.786300 0.954910 5.700958 239 232 222
-1.468327 0.789128 4.711209 239 232 222
-2.074119 1.120693 6.690706 236 232 221
-1.300037 0.706236 4.216335 233 229 218
-3.937222 2.198282 13.124073 230 226 215
-1.695293 0.996356 5.948395 236 226 216
-3.788594 2.239728 13.371510 236 228 217
-1.234977 0.747682 4.463772 235 227 216
-0.547085 0.333225 1.989400 235 227 216
-0.809335 0.499007 2.979149 233 227 215
-0.979985 0.623345 3.721461 231 227 215
-2.657180 1.700933 10.154827 230 226 214
-1.878841 1.535151 9.165078 140 136 125
-1.762941 1.452259 8.670204 175 168 158
-0.348393 0.291779 1.741963 212 205 195
-0.528131 0.457562 2.731712 216 207 200
-0.613051 0.540453 3.226586 160 153 145
-0.463731 0.416116 2.484275 116 109 101
-2.362333 2.198282 13.124073 110 106 97
-2.210110 2.115391 12.629198 234 227 219
-0.818177 0.830573 4.958646 225 223 210
-0.099140 0.996356 5.948395 193 189 177
-0.054502 1.369368 8.175329 197 194 177
0.031408 0.789128 4.711209 193 189 177
-2.646689 1.215561 7.185581 229 224 205
-2.543986 1.173703 6.938144 230 225 205
-3.977455 1.843433 10.897138 226 221 201
-4.030621 1.885291 11.144575 195 193 172
-3.744815 1.759716 10.402264 194 192 171
-3.638813 1.717858 10.154827 205 203 182
-3.445383 1.634142 9.659952 203 201 180
-3.341443 1.592284 9.412515 202 199 180
-3.150900 1.508568 8.917641 202 199 180
-1.395729 0.671405 3.968898 210 207 188
-2.255144 1.089986 6.443269 209 206 189
-1.633219 0.796980 4.711209 207 204 187
-2.564391 1.257419 7.433018 202 199 182
-1.787422 0.880696 5.206084 202 199 184
-1.778745 0.880696 5.206084 201 198 183
-1.091662 0.545831 3.226586 199 193 179
-3.219984 1.634142 9.659952 184 178 166
-2.957684 1.508568 8.917641 174 172 159
-2.861167 1.466709 8.670204 159 159 147
-1.059396 0.545831 3.226586 153 157 143
-1.531143 0.796980 4.711209 212 212 200
-1.443286 0.755121 4.463772 238 231 221
-1.674624 0.880696 5.206084 240 231 222
-2.061846 1.089986 6.443269 242 233 224
-3.390155 1.801574 10.649701 243 234 225
-1.639916 0.880696 5.206084 241 234 224
-3.181846 1.717858 10.154827 239 232 222
-3.550511 1.927149 11.392012 235 231 220
-3.147996 1.717858 10.154827 233 229 218
-0.603451 0.336540 1.989400 234 230 219
-2.391581 1.341135 7.927892 232 228 217
-0.883814 0.503973 2.979149 229 225 214
-0.946465 0.545831 3.226586 230 226 215
-3.088413 1.801574 10.649701 232 226 214
-1.977371 1.173703 6.938144 235 225 215
-1.615271 0.964412 5.700958 235 227 216
-1.536075 0.922554 5.453521 234 226 215
-1.166519 0.713263 4.216335 233 225 214
-1.159492 0.713263 4.216335 233 225 214
-0.546342 0.462115 2.731712 147 143 132
-0.541790 0.462115 2.731712 180 173 165
-0.391249 0.336540 1.989400 202 195 187
-0.480293 0.420256 2.484275 175 168 160
-0.463731 0.420256 2.484275 102 98 89
-0.076376 1.550426 9.165078 196 193 174
-0.034707 0.880696 5.206084 193 190 173
-0.034691 1.173703 6.938144 194 191 174
-0.011564 1.173703 6.938144 194 191 174
0.013213 1.341135 7.927892 191 187 175
0.010755 0.545831 3.226586 194 190 178
0.028109 0.713263 4.216335 187 183 171
-2.099853 0.973914 5.700958 220 217 200
-3.179075 1.481160 8.670204 220 217 200
-3.074310 1.438889 8.422767 213 210 193
-2.341055 1.100725 6.443269 207 206 185
-2.240826 1.058455 6.195832 205 204 183
-4.368357 2.072947 12.134324 198 197 176
-1.776848 0.847102 4.958646 193 192 171
-2.033342 0.973914 5.700958 181 180 159
-1.672479 0.804832 4.711209 172 171 151
-1.926911 0.931643 5.453521 168 167 147
-3.136037 1.523430 8.917641 165 164 146
-1.822129 0.889373 5.206084 159 158 140
-2.847740 1.396619 8.175329 156 155 137
-2.748336 1.354348 7.927892 155 154 136
-2.991220 1.481160 8.670204 147 145 130
-2.467049 1.227537 7.185581 151 149 134
-2.370532 1.185266 6.938144 158 156 143
-2.274840 1.142996 6.690706 156 154 141
-1.510243 0.762561 4.463772 162 160 147
-0.669765 0.339856 1.989400 167 165 152
-1.661147 0.847102 4.958646 170 166 155
-4.457170 2.284300 13.371510 173 171 158
-4.270751 2.199759 12.876635 173 171 158
-3.922673 2.030676 11.886887 177 179 165
-4.227829 2.199759 12.876635 185 189 174
-3.621987 1.903865 11.144575 228 228 216
-4.083441 2.157488 12.629198 238 231 221
-0.786687 0.424397 2.484275 241 232 223
-1.016375 0.551208 3.226586 240 233 223
-3.879618 2.115218 12.381761 238 231 221
-3.858982 2.115218 12.381761 233 229 218
-3.138016 1.777053 10.402264 238 234 223
-0.967976 0.551208 3.226586 230 226 215
-1.019047 0.593479 3.474023 231 227 216
-3.322670 1.946135 11.392012 232 228 216
-0.576926 0.339856 1.989400 233 229 217
-0.637499 0.382126 2.236838 232 224 213
-1.290798 1.058455 6.195832 83 79 68
-0.546342 0.466667 2.731712 98 94 83
-0.330973 0.297585 1.741963 104 100 91
-0.328070 0.297585 1.741963 99 96 87
-0.651256 0.635750 3.721461 224 217 209
-0.252584 2.157488 12.629198 200 196 184
-0.089226 1.016184 5.948395 195 191 179
-0.056218 0.720291 4.216335 197 193 182
-0.049191 0.720291 4.216335 193 189 177
-2.099853 0.983415 5.700958 196 193 176
-2.543986 1.196830 6.938144 188 186 171
-4.067770 1.922439 11.144575 169 170 154
-1.352131 0.641952 3.721461 150 153 132
-4.746540 2.263903 13.124073 134 137 116
-4.457434 2.135854 12.381761 119 122 101
-4.348133 2.093171 12.134324 95 98 77
-4.063151 1.965122 11.392012 79 82 61
-2.023840 0.983415 5.700958 70 73 54
-3.675467 1.794391 10.402264 64 67 50
-1.917821 0.940732 5.453521 60 63 46
-3.034571 1.495610 8.670204 60 62 48
-2.847740 1.410244 8.175329 57 59 45
-2.748336 1.367561 7.927892 53 55 41
-2.649757 1.324879 7.680455 52 54 40
-2.552003 1.282196 7.433018 56 58 45
-2.455073 1.239513 7.185581 59 61 48
-2.358969 1.196830 6.938144 59 61 50
-2.263689 1.154147 6.690706 69 69 59
-2.085930 1.068781 6.195832 76 76 66
-2.075604 1.068781 6.195832 83 83 73
-0.993050 0.513903 2.979149 93 93 81
-0.906018 0.471220 2.731712 97 98 84
-3.514401 1.837073 10.649701 123 125 111
-0.978154 0.513903 2.979149 146 148 134
-3.236414 1.709025 9.907390 197 197 185
-3.541570 1.879756 10.897138 229 227 215
-1.843310 0.983415 5.700958 240 233 223
-0.719516 0.385854 2.236838 242 233 224
-0.557428 0.300489 1.741963 243 234 225
-1.027130 0.556586 3.226586 241 232 223
-1.648593 0.898049 5.206084 240 231 222
-1.016375 0.556586 3.226586 239 232 222
-2.561603 1.410244 8.175329 238 231 221
-0.697148 0.385854 2.236838 234 230 219
-0.765985 0.428537 2.484275 234 230 219
-0.610083 0.343172 1.989400 233 229 218
-2.267070 1.282196 7.433018 233 229 218
-2.254682 1.282196 7.433018 235 231 220
-3.138016 1.794391 10.402264 235 231 220
-0.671051 0.385854 2.236838 230 226 215
-0.593504 0.343172 1.989400 231 227 216
-1.544471 0.898049 5.206084 231 227 216
-1.085426 0.641952 3.721461 233 229 217
-2.028590 1.666342 9.659952 198 194 182
-2.734182 2.263903 13.124073 169 165 154
-2.610034 2.178537 12.629198 114 110 101
-0.467872 0.428537 2.484275 95 92 83
-0.787049 0.727318 4.216335 91 88 79
-1.810944 1.751708 10.154827 81 78 69
-2.318586 2.263903 13.124073 93 89 80
-0.651256 0.641952 3.721461 210 203 195
-0.486594 0.513903 2.979149 252 248 236
-0.044737 0.385854 2.236838 196 192 180
-0.004965 0.513903 2.979149 191 188 171
0.051632 1.068781 6.195832 189 185 173
0.059484 1.026098 5.948395 190 186 174
-3.740361 1.768632 10.154827 107 106 88
-3.541983 1.682442 9.659952 80 81 65
-3.435568 1.639346 9.412515 64 66 52
-3.869391 1.854823 10.649701 52 56 39
-3.672662 1.768632 10.154827 42 49 31
-1.874190 0.906726 5.206084 48 55 37
-4.259468 2.070299 11.886887 40 47 29
-1.768584 0.863631 4.958646 26 33 17
-4.746886 2.328871 13.371510 27 34 18
-1.664627 0.820536 4.711209 30 36 22
-1.917821 0.949822 5.453521 34 40 26
-3.900601 1.941014 11.144575 42 45 34
-1.813452 0.906726 5.206084 41 44 33
-2.748336 1.380775 7.927892 31 34 23
-2.649757 1.337679 7.680455 29 32 21
-2.552003 1.294584 7.433018 32 35 26
-2.455073 1.251489 7.185581 30 33 24
-2.358969 1.208393 6.938144 30 33 26
-2.598554 1.337679 7.680455 35 38 31
-4.418438 2.285776 13.124073 33 36 29
-4.064999 2.113395 12.134324 29 32 23
-3.879817 2.027204 11.639450 36 38 27
-1.972884 1.036012 5.948395 41 43 30
-2.207933 1.165298 6.690706 75 77 64
-1.384363 0.734345 4.216335 119 121 108
-2.589778 1.380775 7.927892 205 205 193
-2.013645 1.079107 6.195832 235 231 220
-2.616105 1.423870 8.175329 242 233 224
-0.633292 0.346487 1.989400 240 231 222
-1.805303 0.992917 5.700958 238 229 220
-0.704604 0.389583 2.236838 238 231 221
-1.708770 0.949822 5.453521 238 231 221
-2.644412 1.510060 8.670204 233 229 218
-3.605689 2.070299 11.886887 232 228 217
-0.824066 0.475773 2.731712 229 225 214
-1.236792 0.734345 4.216335 230 226 215
-0.580242 0.346487 1.989400 228 226 213
-1.079224 0.648154 3.721461 227 225 212
-1.643776 0.992917 5.700958 229 225 213
-2.823606 1.725537 9.907390 229 225 213
-2.047890 1.768632 10.154827 99 95 84
-2.095101 2.027204 11.639450 90 87 78
-2.062769 2.199585 12.629198 248 244 232
0.020653 1.079107 6.195832 190 186 174
0.042114 1.466965 8.422767 192 188 176
-1.990535 0.958911 5.453521 33 37 23
-1.981446 0.958911 5.453521 35 39 25
-0.898479 0.436818 2.484275 43 46 35
-2.663498 1.306972 7.433018 51 54 43
-1.408959 0.697865 3.968898 33 36 27
-1.221698 0.610849 3.474023 34 37 30
-3.467586 1.742049 9.907390 45 48 41
-2.416787 1.219957 6.938144 41 44 37
-2.405223 1.219957 6.938144 30 33 26
-3.231630 1.655034 9.412515 32 34 29
-2.032368 1.045926 5.948395 34 39 33
-1.601811 0.828388 4.711209 37 42 36
-1.502803 0.784880 4.463772 33 38 31
-3.055026 1.611526 9.165078 33 34 26
-4.434884 2.351157 13.371510 43 44 36
-3.783992 2.090111 11.886887 239 230 221
-3.372405 1.872572 10.649701 237 228 219
-1.561974 0.871895 4.958646 237 230 220
-2.949255 1.655034 9.412515 237 230 220
-0.774266 0.436818 2.484275 237 233 222
-3.991757 2.264142 12.876635 241 237 226
-1.071157 0.610849 3.474023 236 232 221
-1.954458 1.132942 6.443269 229 225 214
-2.252933 1.350480 7.680455 228 224 213
-0.792196 0.480326 2.731712 228 226 213
-2.571253 1.568019 8.917641 230 226 214
-2.414526 1.481003 8.422767 231 227 215
-1.413214 0.871895 4.958646 229 225 213
-0.723755 0.610849 3.474023 213 209 197
-0.345489 0.306295 1.741963 125 123 111
-0.439911 0.393311 2.236838 94 92 80
-0.586163 0.567341 3.226586 180 177 168
-2.022354 2.177126 12.381761 240 236 224
-0.059154 0.567341 3.226586 195 191 179
-0.074380 0.871895 4.958646 194 190 178
-0.079279 1.393988 7.927892 191 188 173
0.018178 0.958911 5.453521 188 184 172
0.104023 1.829065 10.402264 190 186 174
0.098266 1.481003 8.422767 187 183 171
-0.997075 0.484879 2.731712 43 45 34
-1.172326 0.572719 3.226586 41 44 35
-3.672662 1.802482 10.154827 46 49 42
-4.457434 2.197763 12.381761 46 49 42
-3.727478 1.846402 10.402264 38 41 34
-1.408959 0.704479 3.968898 33 36 29
-0.612590 0.309198 1.741963 41 43 38
-1.215908 0.616639 3.474023 39 42 35
-0.692974 0.353119 1.989400 33 36 29
-2.062110 1.055840 5.948395 30 33 26
-1.525122 0.792320 4.463772 35 38 31
-1.175378 0.616639 3.474023 37 40 33
-1.502803 0.792320 4.463772 30 35 28
-2.987410 1.582881 8.917641 28 31 24
-2.807589 1.495041 8.422767 33 34 28
-1.808751 0.968000 5.453521 51 52 47
-2.444945 1.363281 7.680455 240 231 222
-2.018891 1.143680 6.443269 238 231 221
-0.913606 0.528799 2.979149 233 229 218
-0.833172 0.484879 2.731712 230 226 215
-2.179626 1.275441 7.185581 231 227 216
-2.093007 1.231520 6.938144 231 227 216
-0.888779 0.528799 2.979149 228 224 213
-2.557710 1.538961 8.670204 230 226 215
-1.734949 1.055840 5.948395 227 225 212
-3.016657 1.846402 10.402264 229 225 213
-3.265710 2.022082 11.392012 233 229 217
-0.496460 0.309198 1.741963 230 226 214
-1.197201 1.011920 5.700958 212 209 194
-1.197861 1.099760 6.195832 167 163 151
-0.511421 0.528799 2.979149 220 213 205
-1.545592 1.714642 9.659952 248 244 232
-0.099140 1.055840 5.948395 193 189 177
-0.063624 0.968000 5.453521 192 188 176
-0.037165 1.319361 7.433018 190 187 170
-0.026426 1.407201 7.927892 192 189 172
-0.007852 0.836240 4.711209 191 188 171
0.014879 0.792320 4.463772 191 187 175
0.068128 1.451121 8.175329 188 184 172
0.042163 0.748399 4.216335 187 183 171
-1.420357 0.666762 3.721461 122 117 97
-1.414155 0.666762 3.721461 72 71 53
-1.688794 0.799759 4.463772 54 55 39
-4.663797 2.218399 12.381761 51 54 35
-4.364794 2.085401 11.639450 41 44 27
-1.204592 0.578097 3.226586 45 45 33
-3.375804 1.642076 9.165078 46 46 38
-4.338714 2.129734 11.886887 46 47 41
-0.632913 0.312102 1.741963 43 44 38
-3.225213 1.597744 8.917641 53 54 48
-3.566660 1.775074 9.907390 47 48 42
-0.978863 0.489432 2.731712 29 30 24
-0.709553 0.356434 1.989400 31 32 26
-0.702921 0.356434 1.989400 37 38 32
-2.526929 1.287417 7.185581 48 49 43
-1.475717 0.755427 4.216335 46 47 41
-0.865356 0.445099 2.484275 33 34 28
-4.120787 2.129734 11.886887 28 29 21
-3.844878 1.996736 11.144575 30 33 24
-3.741351 1.952404 10.897138 33 36 27
-1.778745 0.932757 5.206084 37 40 31
-3.368512 1.775074 9.907390 38 41 32
-3.435716 1.819406 10.154827 34 37 28
-3.418792 1.819406 10.154827 25 31 21
-2.547351 1.376082 7.680455 58 57 55
-1.814805 1.021422 5.700958 241 232 223
-1.962014 1.110087 6.195832 240 231 222
-0.855936 0.489432 2.731712 239 232 222
-1.931034 1.110087 6.195832 237 233 222
-2.150825 1.243084 6.938144 233 229 218
-0.537105 0.312102 1.741963 231 227 216
-2.507101 1.464747 8.175329 228 224 213
-1.278955 0.755427 4.216335 231 227 216
-1.794432 1.065754 5.948395 232 228 217
-2.526830 1.509079 8.422767 227 223 212
-3.620073 2.174066 12.134324 228 224 213
-3.820069 2.307064 12.876635 229 225 214
-1.389807 0.844092 4.711209 228 224 213
-1.951456 1.198752 6.690706 228 226 213
-0.505169 0.312102 1.741963 228 224 212
-3.142008 1.952404 10.897138 230 226 214
-3.194778 1.996736 11.144575 232 228 216
-2.753086 1.730741 9.659952 231 225 213
-0.682961 0.578097 3.226586 209 206 187
-1.008258 0.888424 4.958646 214 210 198
-0.855870 0.844092 4.711209 232 228 217
-1.955629 2.041069 11.392012 227 220 214
-0.019894 0.356434 1.989400 193 190 175
0.000000 2.351396 13.124073 188 185 170
0.011151 1.198752 6.690706 189 185 173
0.026426 1.420414 7.927892 188 184 172
0.051632 1.110087 6.195832 182 178 166
-1.325919 0.628219 3.474023 53 50 35
-1.414155 0.672964 3.721461 46 44 31
-1.688794 0.807199 4.463772 50 48 36
-1.028945 0.493985 2.731712 49 49 37
-2.867370 1.388882 7.680455 45 45 35
-2.670641 1.299393 7.185581 46 46 36
-0.644526 0.315005 1.741963 60 60 50
-0.635817 0.315005 1.741963 51 51 43
-3.689587 1.836331 10.154827 46 47 41
-3.493683 1.746841 9.659952 56 57 51
-4.635589 2.328525 12.876635 57 58 52
-2.486168 1.254648 6.938144 41 42 36
-3.268878 1.657352 9.165078 36 37 31
-3.077922 1.567862 8.670204 37 38 32
-0.790349 0.404495 2.236838 41 42 36
-2.352898 1.209903 6.690706 46 47 41
-3.294380 1.702097 9.412515 43 44 38
-3.192502 1.657352 9.165078 34 35 29
-1.118550 0.583474 3.226586 32 33 27
-2.137562 1.120413 6.195832 34 35 29
-2.042282 1.075668 5.948395 35 38 31
-1.609663 0.851944 4.711209 40 43 36
-1.938326 1.030923 5.700958 40 43 36
-1.175378 0.628219 3.474023 35 38 31
-0.832232 0.449240 2.484275 32 35 28
-1.158008 0.628219 3.474023 34 36 33
-4.434884 2.418015 13.371510 67 67 67
-0.708332 0.404495 2.236838 239 230 221
-1.406088 0.807199 4.463772 237 230 220
-1.699681 0.986178 5.453521 232 228 216
-1.920708 1.120413 6.195832 229 225 214
-1.986675 1.165158 6.443269 232 228 217
-1.520652 0.896689 4.958646 231 227 216
-1.879402 1.120413 6.195832 231 224 214
-2.081443 1.254648 6.938144 227 223 212
-1.184054 0.717709 3.968898 230 226 215
-1.617878 0.986178 5.453521 230 226 215
-1.097831 0.672964 3.721461 228 224 213
-1.164210 0.717709 3.968898 227 223 212
-1.157595 0.717709 3.968898 228 224 213
-0.792196 0.493985 2.731712 227 223 211
-1.001677 0.628219 3.474023 228 224 212
-1.066819 0.672964 3.721461 230 226 214
-1.624773 1.030923 5.700958 227 223 211
-2.097064 1.791586 9.907390 211 208 189
-0.573660 0.493985 2.731712 213 210 191
-0.666828 0.583474 3.226586 213 209 197
-0.505136 0.449240 2.484275 211 207 195
-2.447089 2.194290 12.134324 212 208 196
-0.966936 0.896689 4.958646 219 215 203
-1.293537 1.209903 6.690706 221 217 205
-1.282385 1.209903 6.690706 222 218 206
-0.895130 0.851944 4.711209 232 228 217
-0.925614 0.896689 4.958646 227 223 212
-2.210110 2.283780 12.629198 233 229 218
-0.674713 0.717709 3.968898 223 218 214
-0.544264 0.628219 3.474023 229 225 213
0.039260 0.851944 4.711209 188 185 170
-2.836935 1.356526 7.433018 48 44 32
-1.132077 0.543695 2.979149 47 45 33
-3.186613 1.537155 8.422767 44 41 32
-1.302759 0.634009 3.474023 47 47 37
-2.405487 1.175897 6.443269 45 45 35
-2.210820 1.085582 5.948395 52 52 42
-2.109354 1.040425 5.700958 63 63 53
-3.649222 1.808099 9.907390 49 49 41
-2.181078 1.085582 5.948395 53 53 45
-4.067770 2.033885 11.144575 52 52 44
-3.869391 1.943570 10.649701 50 51 45
-2.240826 1.130739 6.195832 52 53 47
-2.319577 1.175897 6.443269 39 40 34
-0.624204 0.317908 1.741963 36 37 31
-2.888616 1.491998 8.175329 45 46 40
-1.482744 0.769481 4.216335 39 40 34
-3.813998 1.988728 10.897138 32 33 27
-3.537265 1.853256 10.154827 29 30 24
-1.375885 0.724324 3.968898 33 34 28
-0.942441 0.498537 2.731712 38 39 33
-1.702469 0.904953 4.958646 37 40 33
-1.265297 0.679167 3.721461 37 40 33
-1.091662 0.588852 3.226586 31 34 27
-0.753069 0.408223 2.236838 27 30 21
-1.909821 1.040425 5.700958 30 33 26
-1.158008 0.634009 3.474023 38 40 37
-0.988084 0.543695 2.979149 73 73 73
-0.345489 0.317908 1.741963 212 208 196
-0.918686 0.859796 4.711209 212 208 196
-1.234960 1.175897 6.443269 214 210 198
-0.895130 0.859796 4.711209 229 225 214
-0.796039 0.814638 4.463772 231 227 216
-0.573214 0.634009 3.474023 220 215 209
-1.011986 1.130739 6.195832 255 252 243
-0.013230 0.724324 3.968898 190 187 170
0.111429 2.440301 13.371510 185 182 167
0.042163 0.769481 4.216335 183 179 167
-0.944024 0.457521 2.484275 44 44 32
-3.373841 1.642332 8.917641 53 53 41
-4.384193 2.143599 11.639450 48 48 36
-0.653236 0.320812 1.741963 44 44 34
-2.035981 1.004357 5.453521 42 42 32
-3.482631 1.733472 9.412515 39 39 29
-4.742894 2.371447 12.876635 44 44 36
-2.090351 1.049926 5.700958 48 48 40
-2.171164 1.095496 5.948395 50 50 42
-1.981446 1.004357 5.453521 57 58 52
-0.630010 0.320812 1.741963 57 58 52
-0.716184 0.366381 1.989400 41 42 36
-1.945089 1.004357 5.453521 40 41 35
-3.077922 1.596763 8.670204 45 46 40
-2.888616 1.505623 8.175329 50 51 45
-4.354253 2.280308 12.381761 48 49 43
-4.073807 2.143599 11.639450 39 40 34
-2.933930 1.551193 8.422767 32 33 27
-1.375885 0.730939 3.968898 33 34 28
-2.137562 1.141066 6.195832 39 40 34
-2.042282 1.095496 5.948395 40 43 36
-2.201450 1.186635 6.443269 42 45 38
-3.620898 1.961320 10.649701 36 39 32
-1.091662 0.594230 3.226586 30 33 26
-1.586107 0.867648 4.711209 28 31 22
-1.405445 0.776508 4.216335 50 52 51
-1.480484 0.822078 4.463772 83 83 83
-1.997116 1.870181 10.154827 202 198 186
-0.339683 0.320812 1.741963 207 203 191
-0.910834 0.867648 4.711209 213 209 197
-1.130195 1.095496 5.948395 215 211 199
-0.459591 0.457521 2.484275 225 221 210
-1.382482 1.414484 7.680455 238 234 223
-1.281429 1.323344 7.185581 230 226 215
-0.687942 0.730939 3.968898 236 232 223
-0.626446 0.685369 3.721461 243 238 232
-0.029791 0.548660 2.979149 192 189 174
-0.019844 0.730939 3.968898 187 184 167
0.041306 1.141066 6.195832 183 179 167
0.059880 1.323344 7.185581 183 180 165
-0.935743 0.461661 2.484275 46 46 34
-1.117181 0.553625 2.979149 43 43 31
-2.867370 1.427285 7.680455 50 50 40
-2.762605 1.381302 7.433018 55 55 45
-0.644526 0.323715 1.741963 47 47 39
-2.555550 1.289338 6.938144 43 43 35
-1.727443 0.875500 4.711209 50 50 42
-1.262228 0.645589 3.474023 60 61 55
-3.046234 1.565231 8.422767 62 63 57
-2.854041 1.473267 7.927892 42 43 37
-4.348133 2.254962 12.134324 36 37 31
-1.856836 0.967464 5.206084 45 46 40
-0.881918 0.461661 2.484275 49 50 44
-3.588039 1.887105 10.154827 49 50 44
-2.004837 1.059428 5.700958 46 47 41
-4.506822 2.392908 12.876635 38 39 33
-1.375885 0.737553 3.968898 36 37 31
-1.113172 0.599607 3.226586 43 44 38
-1.532562 0.829518 4.463772 44 47 40
-3.215943 1.749159 9.412515 44 47 40
-3.031998 1.657195 8.917641 35 38 31
-2.598554 1.427285 7.680455 30 33 26
-4.418438 2.438890 13.124073 28 31 24
-4.230781 2.346926 12.629198 35 37 32
-4.209733 2.346926 12.629198 62 64 61
-1.480484 0.829518 4.463772 94 96 93
-2.011104 1.933087 10.402264 217 214 199
-1.851491 1.795141 9.659952 219 216 201
-1.493086 1.473267 7.927892 232 228 216
-0.459591 0.461661 2.484275 233 229 217
-0.909085 0.921482 4.958646 231 227 216
-0.631114 0.645589 3.474023 223 219 208
-0.803479 0.829518 4.463772 233 229 218
-1.104923 1.151392 6.195832 234 230 219
-2.340014 2.484872 13.371510 233 229 218
-2.317728 2.484872 13.371510 235 231 222
-0.668098 0.737553 3.968898 250 245 239
-0.826441 0.921482 4.958646 224 220 211
-1.435862 1.703177 9.165078 243 239 227
-0.494743 0.599607 3.226586 231 227 215
-0.040530 0.645589 3.474023 186 182 170
-0.031012 0.691571 3.721461 187 184 169
-0.018211 0.507643 2.731712 173 170 155
-3.388704 1.672058 8.917641 48 50 36
-2.063249 1.022535 5.453521 43 45 32
-3.065749 1.532874 8.175329 52 52 40
-4.234031 2.136002 11.392012 58 58 48
-4.489700 2.275186 12.134324 57 57 49
-1.735295 0.883352 4.711209 46 46 38
-0.729447 0.373013 1.989400 58 57 52
-2.880468 1.486480 7.927892 50 49 45
-3.762152 1.950424 10.402264 40 39 35
-1.161571 0.604985 3.226586 40 39 35
-2.042843 1.068930 5.700958 41 42 36
-4.592667 2.414369 12.876635 46 47 41
-1.140060 0.604985 3.226586 41 42 36
-3.658129 1.950424 10.402264 39 40 34
-3.727395 1.996819 10.649701 31 32 26
-1.123928 0.604985 3.226586 32 33 27
-1.375885 0.744168 3.968898 36 37 31
-1.454636 0.790563 4.216335 40 41 35
-1.532562 0.836957 4.463772 44 47 40
-2.962320 1.625663 8.670204 41 44 37
-2.779612 1.532874 8.175329 30 33 26
-1.677675 0.929746 4.958646 27 30 23
-3.982107 2.228791 11.886887 38 40 35
-1.075529 0.604985 3.226586 72 74 71
-3.696284 2.089608 11.144575 108 110 105
-0.665854 0.651379 3.474023 224 218 204
-1.027080 1.022535 5.453521 210 204 190
-0.818358 0.836957 4.463772 227 223 211
-0.316457 0.326618 1.741963 216 212 201
-1.783330 1.857636 9.907390 226 222 211
-1.863698 1.996819 10.649701 231 227 216
-2.103283 2.275186 12.134324 241 237 226
-0.736522 0.836957 4.463772 203 199 190
-0.045545 0.465802 2.484275 190 186 174
-0.045529 0.512196 2.731712 188 184 172
-2.175866 1.078431 5.700958 50 52 38
-4.799095 2.389023 12.629198 58 60 47
-3.280227 1.640114 8.670204 54 56 43
-1.851228 0.938011 4.958646 47 47 37
-4.509924 2.295410 12.134324 49 49 39
-2.362532 1.218852 6.443269 53 52 47
-0.997075 0.516749 2.731712 54 53 49
-2.251152 1.172045 6.195832 62 61 57
-2.777765 1.452886 7.680455 45 44 40
-2.141422 1.125238 5.948395 46 45 41
-2.042843 1.078431 5.700958 49 48 44
-2.033342 1.078431 5.700958 53 54 48
-1.936000 1.031624 5.453521 52 53 47
-2.352898 1.265659 6.690706 42 43 37
-3.520340 1.920955 10.154827 38 39 33
-1.454636 0.797590 4.216335 44 45 39
-2.552003 1.406079 7.433018 47 50 43
-3.046861 1.686920 8.917641 48 51 44
-2.695483 1.499693 7.927892 32 35 28
-0.993050 0.563556 2.979149 77 79 76
-0.577751 0.329521 1.741963 123 124 119
-0.933878 0.938011 4.958646 210 204 188
-1.757003 1.780534 9.412515 218 215 200
-1.125576 1.172045 6.195832 227 223 212
-0.803479 0.844397 4.463772 224 220 209
-0.885034 0.984817 5.206084 244 240 229
-0.455285 0.516749 2.731712 252 248 239
-0.736522 0.844397 4.463772 253 249 240
-0.500121 0.610363 3.226586 249 245 234
-0.380922 0.469942 2.484275 232 228 217
-0.203097 1.920955 10.154827 188 184 172
-0.056152 1.593307 8.422767 163 159 147
0.000000 1.265659 6.690706 186 182 170
0.007852 0.891204 4.711209 185 181 169
0.078438 1.780534 9.412515 188 184 172
0.915041 0.469942 2.484275 31 30 2
0.838814 0.423135 2.236838 81 75 15
-2.553620 1.276810 6.690706 50 54 39
-2.542468 1.276810 6.690706 56 58 45
-1.220725 0.615740 3.226586 55 57 46
-3.993638 2.032318 10.649701 50 50 38
-2.867370 1.465687 7.680455 58 58 48
-1.842964 0.946275 4.958646 58 58 48
-2.567113 1.324029 6.938144 47 47 39
-0.641623 0.332425 1.741963 62 61 56
-2.453259 1.276810 6.690706 61 60 56
-3.150174 1.654564 8.670204 67 66 62
-1.435418 0.757398 3.968898 50 49 45
-4.457434 2.362853 12.381761 52 51 47
-1.510853 0.804617 4.216335 54 53 49
-2.033342 1.087933 5.700958 57 58 52
-2.287361 1.229591 6.443269 54 55 49
-2.276622 1.229591 6.443269 49 50 44
-1.221698 0.662959 3.474023 36 37 31
-3.467586 1.890660 9.907390 32 33 27
-3.278693 1.796222 9.412515 38 39 33
-3.263005 1.796222 9.412515 42 43 37
-3.247318 1.796222 9.412515 46 47 41
-3.571444 1.985099 10.402264 45 48 41
-0.595171 0.332425 1.741963 47 50 43
-0.928782 0.521302 2.731712 32 35 28
-2.012540 1.135152 5.948395 29 32 25
-1.086284 0.615740 3.226586 39 41 36
-0.993050 0.568521 2.979149 84 86 81
-0.577751 0.332425 1.741963 141 142 136
-1.387497 1.418468 7.433018 219 216 201
-2.061746 2.126756 11.144575 215 212 197
-0.496261 0.521302 2.731712 228 226 214
-0.824462 0.899056 4.711209 241 237 226
-0.318304 0.379644 1.989400 212 208 199
-0.222892 2.126756 11.144575 189 185 173
0.011184 0.426863 2.236838 182 178 166
0.022764 0.521302 2.731712 186 182 170
0.118869 2.268414 11.886887 182 178 166
0.020323 0.332425 1.741963 180 176 164
0.023226 0.332425 1.741963 184 180 168
1.917574 0.993494 5.206084 30 29 1
0.644526 0.332425 1.741963 31 27 0
0.650333 0.332425 1.741963 45 37 0
0.653236 0.332425 1.741963 90 82 17
-2.459181 1.240329 6.443269 51 55 41
-1.132077 0.573486 2.979149 53 55 44
-1.127111 0.573486 2.979149 48 49 41
-0.656140 0.335328 1.741963 51 51 39
-4.364794 2.240594 11.639450 56 56 44
-4.068265 2.097699 10.897138 60 60 50
-4.509924 2.335857 12.134324 63 63 53
-2.658665 1.383224 7.185581 57 57 49
-3.632709 1.907172 9.907390 61 60 56
-4.158085 2.192962 11.392012 53 52 48
-3.869391 2.050067 10.649701 50 49 45
-4.030621 2.145331 11.144575 48 47 43
-4.457434 2.383489 12.381761 56 55 51
-2.042843 1.097434 5.700958 57 56 52
-1.945089 1.049803 5.453521 56 57 51
-2.463041 1.335593 6.938144 52 53 47
-2.364050 1.287961 6.690706 41 42 36
-2.265883 1.240329 6.443269 32 33 27
-0.782893 0.430591 2.236838 36 37 31
-3.795836 2.097699 10.897138 42 43 37
-1.547441 0.859276 4.463772 42 43 37
-2.905854 1.621383 8.422767 46 47 41
-0.683027 0.382960 1.989400 46 49 42
-4.568599 2.574016 13.371510 39 42 35
-3.100851 1.764278 9.165078 30 33 26
-3.002272 1.716646 8.917641 40 42 37
-0.993050 0.573486 2.979149 91 93 88
-1.649764 1.716646 8.917641 215 212 197
-1.226630 1.287961 6.690706 234 230 218
-0.491708 0.525855 2.731712 231 229 217
-0.769498 0.906908 4.711209 252 248 239
-0.401624 0.478223 2.484275 216 212 203
-0.635024 0.764013 3.968898 210 206 197
-0.069480 0.668750 3.474023 190 186 174
-0.039722 0.573486 2.979149 187 183 171
-0.074314 1.716646 8.917641 186 182 170
0.000000 1.954804 10.154827 183 179 167
0.035136 0.811644 4.216335 184 180 168
0.099074 1.907172 9.907390 178 174 162
0.098266 1.621383 8.422767 177 173 161
1.711739 0.906908 4.711209 30 28 3
0.835086 0.430591 2.236838 53 46 4
0.838814 0.430591 2.236838 90 81 12
2.999386 1.526119 7.927892 134 124 35
-1.236858 0.626495 3.226586 48 49 41
-1.231480 0.626495 3.226586 58 59 51
-0.661946 0.338231 1.741963 60 61 53
-5.058888 2.596301 13.371510 51 52 44
-1.766703 0.914760 4.711209 53 53 43
-2.220734 1.154980 5.948395 49 49 39
-3.482631 1.827597 9.412515 60 60 52
-3.740361 1.971729 10.154827 66 65 60
-1.273809 0.674540 3.474023 53 52 48
-1.172326 0.626495 3.226586 48 47 43
-2.151336 1.154980 5.948395 49 48 44
-2.042843 1.106936 5.700958 60 56 53
-2.386352 1.299112 6.690706 61 60 56
-2.726562 1.491288 7.680455 59 60 55
-4.374889 2.404125 12.381761 43 44 38
-3.919176 2.163905 11.144575 35 38 31
-3.380983 1.875641 9.659952 40 41 35
-3.348783 1.875641 9.659952 44 47 40
-4.613171 2.596301 13.371510 53 56 49
-1.107795 0.626495 3.226586 56 59 52
-2.527226 1.443244 7.433018 31 32 26
-2.431121 1.395200 7.185581 39 40 34
-1.002980 0.578451 2.979149 58 60 55
-1.075529 0.626495 3.226586 136 137 129
-1.234284 0.722584 3.721461 197 197 187
-0.463731 0.482363 2.484275 210 204 188
-1.680264 1.779553 9.165078 211 207 195
-1.104923 1.203024 6.195832 232 229 220
-1.745983 2.163905 11.144575 230 226 215
-2.072584 2.596301 13.371510 250 246 235
-0.198148 1.923685 9.907390 182 178 166
-0.107784 1.395200 7.185581 185 181 169
-0.042922 2.500213 12.876635 186 182 170
0.053694 1.251068 6.443269 181 177 165
1.082424 0.578451 2.979149 30 29 1
0.653236 0.338231 1.741963 136 129 51
-1.236858 0.631873 3.226586 49 50 42
-1.325919 0.680330 3.474023 57 58 50
-2.072338 1.067981 5.453521 60 61 53
-1.969635 1.019525 5.206084 55 56 48
-4.197790 2.182479 11.144575 49 51 40
-2.774993 1.455633 7.433018 61 61 51
-4.050103 2.134023 10.897138 54 54 44
-3.391079 1.794828 9.165078 64 64 56
-0.915041 0.486504 2.484275 69 69 61
-3.435568 1.843284 9.412515 57 56 51
-3.240076 1.746371 8.917641 54 53 49
-0.987969 0.534960 2.731712 54 53 49
-2.675886 1.455633 7.433018 63 62 58
-4.614128 2.521674 12.876635 62 61 57
-4.680919 2.570131 13.124073 64 63 59
-4.483365 2.473218 12.629198 57 58 52
-4.200033 2.327849 11.886887 39 40 34
-0.612590 0.341134 1.741963 32 35 28
-3.034571 1.697915 8.670204 36 37 31
-2.933930 1.649458 8.422767 43 44 38
-1.290106 0.728786 3.721461 45 46 40
-2.649757 1.504089 7.680455 58 61 54
-0.937888 0.534960 2.731712 53 56 49
-3.300484 1.891741 9.659952 35 36 30
-2.443097 1.407176 7.185581 44 45 39
-0.756797 0.438047 2.236838 67 68 62
-2.585753 1.504089 7.680455 100 101 95
-0.749341 0.438047 2.236838 155 156 150
-0.823951 0.486504 2.484275 233 231 219
-0.971802 1.019525 5.206084 212 206 190
-0.586163 0.631873 3.226586 220 216 204
-1.060797 1.164894 5.948395 237 233 222
-0.645053 0.728786 3.721461 230 226 215
-0.753793 0.922612 4.711209 235 231 220
-0.071856 1.407176 7.185581 185 181 169
-0.034674 2.037110 10.402264 188 184 172
0.013659 0.534960 2.731712 185 181 169
0.719500 0.389591 1.989400 29 28 0
1.531935 0.825699 4.216335 30 28 3
4.651755 2.473218 12.629198 32 31 1
0.746025 0.389591 1.989400 137 130 49
3.079374 1.601002 8.175329 120 111 20
-5.030894 2.592004 13.124073 50 51 45
-1.325919 0.686120 3.474023 54 55 49
-1.127111 0.588382 2.979149 55 56 50
-1.006181 0.539513 2.731712 73 73 65
-4.086344 2.201054 11.144575 57 57 49
-4.880601 2.640873 13.371510 49 48 43
-3.509783 1.907841 9.659952 48 47 42
-0.987969 0.539513 2.731712 53 52 47
-2.675886 1.468021 7.433018 67 66 61
-0.624204 0.344038 1.741963 66 65 60
-3.268878 1.810103 9.165078 58 57 52
-3.253603 1.810103 9.165078 52 51 46
-3.063472 1.712365 8.670204 38 39 33
-3.223052 1.810103 9.165078 36 37 29
-1.985834 1.125939 5.700958 43 44 36
-2.834114 1.614628 8.175329 46 47 39
-2.735123 1.565759 7.927892 61 62 54
-3.146677 1.810103 9.165078 52 53 45
-3.131402 1.810103 9.165078 50 51 43
-2.863741 1.663496 8.422767 77 78 70
-2.765986 1.614628 8.175329 119 119 111
-2.669057 1.565759 7.927892 188 187 182
-3.567650 2.103316 10.649701 220 220 212
-3.467421 2.054447 10.402264 226 223 214
-3.285951 1.956709 9.907390 230 226 215
-0.971802 1.028201 5.206084 212 206 192
-1.485185 1.614628 8.175329 204 200 188
-1.337943 1.468021 7.433018 233 229 217
-0.511421 0.588382 2.979149 245 243 230
-1.254474 1.516890 7.680455 249 245 234
-0.133765 1.761234 8.917641 183 179 167
-0.074314 1.761234 8.917641 185 181 169
-0.012405 0.734988 3.721461 184 180 168
-0.007027 0.832726 4.216335 182 178 166
0.065620 2.592004 13.124073 184 180 168
0.059451 1.761234 8.917641 182 178 166
0.072252 1.712365 8.670204 181 177 165
0.059517 0.881595 4.463772 178 174 162
1.909079 0.979333 4.958646 135 125 27
-4.651491 2.416753 12.134324 56 57 51
-3.686882 1.923941 9.659952 68 69 63
-3.576756 1.874659 9.412515 60 61 55
-3.373841 1.776097 8.917641 54 55 49
-1.209970 0.642628 3.226586 51 50 45
-1.107250 0.593347 2.979149 62 62 54
-1.102285 0.593347 2.979149 68 68 60
-4.834033 2.613878 13.124073 70 70 62
-4.539979 2.466034 12.381761 58 58 50
-3.345253 1.825378 9.165078 56 56 48
-3.060272 1.677534 8.422767 50 50 42
-1.703887 0.938316 4.711209 55 55 47
-1.696035 0.938316 4.711209 65 65 57
-4.170803 2.318190 11.639450 65 64 59
-3.886646 2.170347 10.897138 57 57 49
-3.692804 2.071784 10.402264 48 48 40
-3.500611 1.973222 9.907390 38 38 30
-0.612590 0.346941 1.741963 38 38 30
-3.020121 1.726816 8.670204 49 49 39
-1.017991 1.086160 5.453521 215 209 195
-0.536247 0.593347 2.979149 207 201 187
-2.296333 2.564597 12.876635 244 238 224
-0.222858 2.663159 13.371510 189 185 173
-0.074380 0.987597 4.958646 182 178 166
0.014896 0.593347 2.979149 181 177 165
0.023160 0.691910 3.474023 179 175 163
0.022764 0.544066 2.731712 179 175 163
2.319577 1.283284 6.443269 29 28 0
0.632913 0.346941 1.741963 29 27 2
0.644526 0.346941 1.741963 34 30 0
-3.513280 1.840653 9.165078 59 60 54
-3.309128 1.741266 8.670204 66 67 61
-3.012599 1.592185 7.927892 60 61 55
-2.905772 1.542491 7.680455 58 59 53
-3.993638 2.138815 10.649701 56 55 50
-3.791135 2.039428 10.154827 58 58 50
-3.590282 1.940040 9.659952 61 61 53
-2.475561 1.343717 6.690706 67 67 59
-2.373271 1.294023 6.443269 67 67 57
-2.261479 1.244330 6.195832 53 53 43
-2.161250 1.194636 5.948395 56 56 46
-2.061846 1.144942 5.700958 61 61 53
-2.052345 1.144942 5.700958 66 66 58
-1.954178 1.095249 5.453521 66 66 58
-2.562857 1.443104 7.185581 61 61 53
-1.848160 1.045555 5.206084 50 50 40
-3.675467 2.089121 10.402264 40 40 30
-1.743791 0.995861 4.958646 42 42 32
-1.995335 1.144942 5.700958 48 48 38
-3.106312 1.790960 8.917641 53 53 43
-0.371355 0.399538 1.989400 215 209 195
-0.825798 0.896474 4.463772 211 205 191
-1.649714 1.840653 9.165078 207 201 185
-1.899197 2.138815 10.649701 215 209 193
-0.583029 0.747393 3.721461 227 223 212
0.632913 0.349844 1.741963 29 27 2
0.827630 0.449232 2.236838 41 36 0
1.137042 0.598312 2.979149 130 122 23
-0.762604 0.402854 1.989400 53 54 48
-5.103460 2.707731 13.371510 58 59 53
-3.294677 1.755716 8.670204 60 61 55
-3.186613 1.705610 8.422767 57 58 52
-3.079374 1.655504 8.175329 55 56 50
-3.993638 2.156564 10.649701 63 62 57
-3.791135 2.056352 10.154827 67 67 59
-3.590282 1.956140 9.659952 77 77 69
-3.482631 1.906034 9.412515 87 87 79
-3.375804 1.855928 9.165078 96 96 86
-2.271805 1.254656 6.195832 97 97 87
-2.261479 1.254656 6.195832 102 102 94
-2.161250 1.204550 5.948395 108 108 98
-2.061846 1.154444 5.700958 119 119 109
-2.052345 1.154444 5.700958 120 120 110
-1.954178 1.104338 5.453521 123 123 113
-1.945089 1.104338 5.453521 120 120 110
-1.848160 1.054232 5.206084 115 115 105
-2.364050 1.354868 6.690706 114 112 100
-1.743791 1.004126 4.958646 111 109 97
-2.255144 1.304762 6.443269 109 107 95
-3.192502 1.855928 9.165078 107 105 93
-1.575450 1.805822 8.917641 227 223 211
-1.863698 2.156564 10.649701 255 253 241
-1.148571 1.354868 6.690706 233 234 220
-3.608131 1.921722 9.412515 65 66 60
-2.836935 1.517574 7.433018 76 77 71
-3.294677 1.770167 8.670204 86 87 81
-3.186613 1.719648 8.422767 97 98 92
-4.943401 2.679498 13.124073 110 111 105
-4.828738 2.628980 12.876635 125 124 119
-4.622524 2.527943 12.381761 150 150 142
-4.325995 2.376388 11.639450 179 179 171
-4.215045 2.325869 11.392012 198 198 190
-3.284664 1.820685 8.917641 199 199 191
-4.902887 2.730017 13.371510 204 204 196
-3.074310 1.719648 8.422767 210 210 202
-2.970370 1.669130 8.175329 216 216 206
-0.630010 0.355651 1.741963 217 217 205
-2.052345 1.163946 5.700958 214 214 202
-1.954178 1.113427 5.453521 214 214 202
-1.945089 1.113427 5.453521 209 209 197
-1.848160 1.062909 5.206084 208 206 194
-1.839483 1.062909 5.206084 205 203 191
-1.743791 1.012390 4.958646 205 201 189
-1.735526 1.012390 4.958646 202 200 187
-2.158215 1.264982 6.195832 198 196 183
-1.181266 1.315501 6.443269 214 208 194
-1.473984 1.719648 8.422767 236 232 220
-0.372806 0.456688 2.236838 251 249 234
-0.890742 1.113427 5.453521 238 234 222
-0.961657 1.214464 5.948395 231 227 215
-0.346710 0.456688 2.236838 217 213 202
0.632913 0.355651 1.741963 29 28 0
-1.047156 0.562277 2.731712 99 100 94
-0.944024 0.511347 2.484275 142 143 137
-0.939884 0.511347 2.484275 166 167 161
-5.036602 2.752302 13.371510 188 189 183
-4.921527 2.701372 13.124073 213 213 205
-4.714901 2.599510 12.629198 231 231 223
-4.417960 2.446718 11.886887 247 247 239
-4.215045 2.344856 11.392012 252 252 244
-3.922640 2.192063 10.649701 254 254 246
-2.453259 1.377170 6.690706 250 250 242
-1.629277 0.918793 4.463772 242 242 234
-1.352131 0.766001 3.721461 233 233 223
-3.493683 1.988340 9.659952 225 225 213
-4.635589 2.650441 12.876635 222 222 210
-1.422188 0.816931 3.968898 215 217 204
-1.503826 0.867862 4.216335 214 214 202
-3.780644 2.192063 10.649701 215 213 201
-1.140060 0.664139 3.226586 209 207 194
-4.006191 2.344856 11.392012 216 212 200
-1.735526 1.020655 4.958646 220 218 205
-0.727631 0.816931 3.968898 217 211 197
-0.730831 0.867862 4.216335 225 223 210
-0.890742 1.122516 5.453521 231 227 215
-0.961657 1.224378 5.948395 229 225 214
1.262228 0.715070 3.474023 29 28 0
0.641623 0.358554 1.741963 38 38 0
-1.047156 0.566830 2.731712 169 166 161
-3.309128 1.799067 8.670204 202 199 194
-0.944024 0.515487 2.484275 215 212 207
-1.407953 0.772203 3.721461 229 226 221
-2.333763 1.285635 6.195832 235 232 225
-3.529693 1.953097 9.412515 242 239 230
-3.329253 1.850410 8.917641 250 246 237
-1.107250 0.618173 2.979149 248 244 235
-1.102285 0.618173 2.979149 244 240 231
-4.469476 2.517872 12.134324 233 229 220
-4.177071 2.363843 11.392012 212 210 198
-4.067770 2.312499 11.144575 196 194 182
-3.869391 2.209813 10.649701 187 185 172
-3.672662 2.107127 10.154827 179 177 164
-3.477583 2.004440 9.659952 177 178 164
-3.284153 1.901754 9.165078 168 169 155
-4.063151 2.363843 11.392012 170 171 157
-3.868484 2.261156 10.897138 175 176 162
-3.762894 2.209813 10.649701 183 181 168
-4.702314 2.774588 13.371510 198 196 183
-4.420219 2.620559 12.629198 218 216 203
-3.364883 2.004440 9.659952 231 227 215
-1.473984 1.747724 8.422767 209 203 189
-0.687942 0.823546 3.968898 205 203 188
-2.210489 2.671902 12.876635 230 231 215
-2.022387 2.517872 12.134324 248 249 235
-0.881653 1.131606 5.453521 230 228 215
-0.991333 1.285635 6.195832 223 221 208
0.823902 0.464144 2.236838 49 49 0
1.349079 0.720860 3.474023 123 113 16
-3.513280 1.917029 9.165078 232 229 222
-3.781320 2.072296 9.907390 229 226 219
-1.226103 0.674894 3.226586 218 215 208
-3.935523 2.175807 10.402264 211 208 201
-2.054159 1.140695 5.453521 200 196 187
-1.488337 0.830161 3.968898 189 185 174
-1.389345 0.778405 3.721461 177 173 162
-3.314390 1.865273 8.917641 166 162 151
-1.102285 0.623139 2.979149 154 150 139
-3.011246 1.710006 8.175329 145 143 130
-1.273809 0.726650 3.474023 139 137 124
-2.803366 1.606495 7.680455 135 133 120
-3.959294 2.279318 10.897138 127 128 114
-3.672662 2.124051 10.154827 128 129 115
-3.566660 2.072296 9.907390 127 129 115
-3.372818 1.968784 9.412515 133 135 121
-2.121594 1.244206 5.948395 149 151 137
-2.375201 1.399473 6.690706 154 155 141
-2.276622 1.347717 6.443269 184 185 171
-2.352898 1.399473 6.690706 216 217 203
-2.168541 1.295962 6.195832 229 227 215
-2.244405 1.347717 6.443269 230 228 216
-0.316457 0.364361 1.741963 207 201 187
-1.785722 2.175807 10.402264 216 219 202
-2.273157 2.796874 13.371510 237 240 223
-1.042965 1.295962 6.195832 243 245 231
-1.348929 1.710006 8.175329 235 233 220
-1.281676 1.658251 7.927892 226 224 211
-1.545592 2.020540 9.659952 220 218 205
-0.785119 1.037184 4.958646 214 212 199
-1.426560 0.784608 3.721461 213 211 199
-1.042603 0.575936 2.731712 196 194 182
-1.226103 0.680272 3.226586 180 178 166
-1.220725 0.680272 3.226586 163 161 149
-1.774555 0.993280 4.711209 145 143 131
-1.395548 0.784608 3.721461 134 130 118
-1.389345 0.784608 3.721461 127 123 111
-3.222426 1.827968 8.670204 123 119 107
-1.102285 0.628104 2.979149 120 116 104
-1.370738 0.784608 3.721461 115 113 100
-1.273809 0.732440 3.474023 114 112 99
-2.713052 1.567128 7.433018 109 107 94
-3.869391 2.245312 10.649701 106 108 94
-3.851642 2.245312 10.649701 104 108 93
-3.833892 2.245312 10.649701 111 115 100
-3.550148 2.088808 9.907390 131 135 120
-3.357130 1.984472 9.412515 154 156 142
-0.706237 0.419432 1.989400 191 193 180
-2.538905 1.514960 7.185581 217 217 205
-2.439914 1.462792 6.938144 228 228 216
-2.341747 1.410624 6.690706 229 227 215
1.082424 0.628104 2.979149 29 29 1
1.092355 0.628104 2.979149 42 40 1
-1.805964 1.001132 4.711209 158 156 141
-1.042603 0.580489 2.731712 141 139 124
-1.226103 0.685650 3.226586 129 127 112
-1.969635 1.106293 5.206084 120 118 103
-3.731783 2.105320 9.907390 117 115 100
-3.529693 2.000159 9.412515 110 108 93
-1.666475 0.948552 4.463772 105 103 88
-3.222426 1.842418 8.670204 107 105 92
-1.102285 0.633069 2.979149 104 102 89
-2.920107 1.684677 7.927892 97 95 82
-1.273809 0.738230 3.474023 90 88 75
-2.713052 1.579516 7.433018 85 86 72
-3.869391 2.263061 10.649701 87 91 76
-3.225213 1.894999 8.917641 94 101 85
-3.833892 2.263061 10.649701 122 129 113
-2.929493 1.737258 8.175329 150 154 139
