ply
format ascii 1.0
element vertex 1225
property float x
property float y
property float z
property uchar red
property uchar green
property uchar blue
end_header
2.719047 -3.163627 4.436866 22 24 21
2.939100 -3.380258 4.827140 42 44 39
5.495570 -5.909707 9.549193 74 75 61
5.511288 -5.922801 9.541954 166 164 149
5.633724 -6.041454 9.731375 234 230 218
5.221718 -5.631602 8.937886 236 232 223
5.789304 -6.187716 9.905533 235 230 227
1.167808 -1.621502 1.464142 235 230 226
3.226523 -3.653008 5.186387 235 230 224
3.344409 -3.767870 5.377904 235 232 227
2.375777 -2.811034 3.611719 218 217 213
3.908866 -4.321379 6.346992 168 167 165
4.369449 -4.771697 7.118110 75 74 72
4.601447 -4.998278 7.502883 75 74 69
5.715628 -6.093021 9.447845 80 80 72
1.977236 -2.412398 2.812028 109 109 99
0.986990 -1.437556 1.055798 130 132 121
2.100318 -2.531588 3.001153 140 141 133
2.106651 -2.536864 2.998236 148 149 141
5.682667 -6.048904 9.217215 149 150 142
2.231154 -2.657238 3.186706 150 150 140
2.798379 -3.213052 4.154519 150 148 136
0.895520 -1.344698 0.852115 152 148 136
2.138317 -2.563242 2.983652 153 149 137
4.969015 -5.337792 7.825219 154 150 139
1.131653 -1.574723 1.234983 160 156 145
1.589600 -2.022846 2.007315 174 170 159
1.594511 -2.026937 2.005053 196 192 181
1.599423 -2.031028 2.002791 216 212 201
2.405110 -2.818808 3.352400 231 227 216
5.164356 -5.517175 7.981064 231 227 216
3.108706 -3.504883 4.503217 228 224 213
1.158068 -1.596728 1.222817 228 224 213
-0.053459 -0.548421 1.290629 154 151 142
-0.021776 -0.590964 1.521977 155 152 143
0.988403 -1.997709 9.664622 156 153 144
1.059940 -2.089600 10.123555 158 155 146
-0.040640 -0.559100 1.284725 159 156 147
0.051412 -0.684231 1.980149 162 159 150
1.375288 -2.465342 11.699898 163 160 151
0.530350 -1.309295 5.202727 179 176 167
0.980143 -1.893930 8.192789 235 233 221
0.397366 -1.117767 4.034276 224 222 209
0.603862 -1.386681 5.414811 200 198 183
0.410602 -1.128792 4.028180 167 163 151
0.146165 -0.779312 2.182450 126 122 110
1.448010 -1.912228 2.320702 104 104 94
0.953894 -1.419869 1.318570 115 115 103
0.957668 -1.423013 1.316832 118 118 106
1.162304 -1.625779 1.714466 143 143 131
1.569508 -2.029589 2.510686 168 169 155
1.069989 -1.532728 1.511042 194 194 182
1.687517 -2.144043 2.702276 208 207 202
1.387722 -1.845857 2.102528 157 155 156
1.801184 -2.254879 2.895866 74 74 76
0.783013 -1.245222 0.905391 37 37 37
1.402456 -1.858131 2.095743 35 35 35
1.407367 -1.862222 2.093481 32 32 30
2.858131 -3.296838 4.868484 33 33 31
1.422101 -1.874496 2.086695 30 31 26
2.155911 -2.598824 3.470315 30 31 26
1.327511 -1.779550 1.884319 43 44 38
1.551923 -1.998790 2.272845 37 37 35
1.557119 -2.003118 2.270452 19 21 18
5.689870 -6.075636 9.958751 20 22 19
4.644966 -5.043709 7.980588 44 47 40
4.658409 -5.054908 7.974396 71 72 56
4.671852 -5.066106 7.968205 145 144 126
5.434102 -5.814126 9.338727 228 224 212
4.805996 -5.194000 8.152365 235 228 222
3.636771 -4.042362 5.985518 237 229 226
1.059557 -1.507889 1.269907 238 233 229
2.252540 -2.679318 3.425813 231 228 223
1.825865 -2.259289 2.638560 231 228 223
2.266344 -2.690818 3.419455 201 202 197
3.689767 -4.086509 5.961110 131 132 127
1.515415 -1.952228 2.043719 87 86 82
3.611748 -4.005368 5.751102 70 71 65
1.860451 -2.288101 2.622631 88 89 81
1.976601 -2.401006 2.815078 117 119 108
1.982650 -2.406044 2.812292 131 131 119
1.988699 -2.411083 2.809506 140 140 130
4.775706 -5.136469 7.674436 149 146 137
2.112319 -2.530212 2.998512 149 149 139
2.677688 -3.081926 3.967829 149 149 139
5.839725 -6.168169 9.397856 152 150 138
4.390859 -4.751283 6.867919 150 146 134
4.515825 -4.871533 7.056305 158 152 140
4.867818 -5.213200 7.632013 158 154 143
1.816111 -2.235015 2.397112 182 178 167
2.162985 -2.572418 2.975178 208 204 193
3.766471 -4.134255 5.679844 225 221 210
3.891153 -4.254268 5.868362 228 224 213
4.818961 -5.156351 7.408575 228 224 213
1.383770 -1.810265 1.612470 228 224 213
5.536030 -5.850585 8.553965 226 222 211
5.666115 -5.975098 8.739994 225 221 209
-0.050591 -0.545055 1.290769 155 152 143
0.096278 -0.745595 2.453474 156 153 144
0.884366 -1.824346 8.734388 158 155 146
0.984576 -1.954740 9.426443 160 157 148
1.145664 -2.167126 10.582600 160 157 148
0.801802 -1.693012 7.788136 161 158 149
0.009261 -0.610552 1.509273 163 160 151
-0.018542 -0.571753 1.276009 163 160 151
-0.015337 -0.574422 1.274533 167 164 155
0.537546 -1.300851 5.203078 192 189 180
0.578015 -1.350202 5.430509 216 213 204
0.815339 -1.657372 7.043693 233 231 219
0.170307 -0.807264 2.419380 217 215 202
0.544177 -1.290735 4.953955 188 186 171
1.465933 -2.480834 11.173307 145 141 129
0.662096 -1.435882 5.637855 118 114 102
1.452660 -1.906771 2.320929 113 113 103
0.957271 -1.415906 1.318735 127 127 115
0.961045 -1.419049 1.316997 150 151 137
1.170533 -1.624835 1.712656 201 202 188
1.280756 -1.732293 1.907961 212 211 207
1.692677 -2.137988 2.702528 160 158 159
1.085795 -1.538608 1.505613 81 79 80
1.601813 -2.046658 2.498306 45 43 44
0.785881 -1.241856 0.905530 29 29 29
0.892047 -1.345933 1.102705 32 32 32
1.520204 -1.963037 2.289822 30 30 28
4.536008 -4.928803 8.036896 32 33 28
1.426497 -1.869337 2.086909 30 31 26
5.293575 -5.669347 9.410482 25 26 20
2.378325 -2.802983 3.863167 36 37 31
2.070941 -2.500008 3.266525 46 47 39
1.340906 -1.782399 1.880259 39 40 34
0.817930 -1.268553 0.890770 41 42 37
1.561769 -1.997661 2.270679 27 27 25
4.125129 -4.508336 6.995781 30 31 25
5.630364 -5.981177 9.747512 63 64 48
1.154782 -1.596076 1.473840 139 136 121
1.158840 -1.599456 1.471971 225 221 209
1.592943 -2.023630 2.256321 243 236 230
2.783892 -3.187747 4.414590 241 236 232
2.143735 -2.560647 3.233000 239 234 230
3.017269 -3.413433 4.799246 229 226 221
3.243459 -3.633133 5.187212 172 172 164
2.272521 -2.683568 3.419756 114 115 110
3.590036 -3.968757 5.765804 76 77 72
3.709853 -4.084206 5.956691 77 76 71
1.859846 -2.277244 2.625537 103 104 96
1.865611 -2.282046 2.622883 131 133 122
1.871375 -2.286848 2.620228 138 138 126
2.098988 -2.507733 3.007539 146 144 132
2.105321 -2.513009 3.004622 150 146 137
2.111654 -2.518284 3.001705 150 146 137
2.236382 -2.637825 3.190331 150 148 136
4.727488 -5.057032 7.456571 153 149 138
4.288703 -4.628958 6.674377 154 148 136
1.696857 -2.110192 2.208464 171 163 152
2.042503 -2.445041 2.787484 189 185 174
1.934784 -2.339669 2.591025 213 209 198
3.537283 -3.893534 5.297960 226 222 211
2.060650 -2.460158 2.779126 227 223 212
4.588367 -4.909862 7.028505 225 221 210
4.830484 -5.142830 7.409136 226 222 211
4.958548 -5.265149 7.596225 224 220 209
5.202656 -5.499775 7.975940 224 220 209
5.447901 -5.735348 8.355130 223 219 207
0.071431 -0.701460 2.220828 157 154 145
0.514848 -1.297762 5.709594 159 156 147
0.937241 -1.861421 8.961844 162 159 152
1.009512 -1.951881 9.420957 162 159 152
0.992546 -1.922620 9.182572 162 159 152
1.157467 -2.135644 10.337611 162 159 152
0.281648 -0.967346 3.601205 163 160 153
1.248016 -2.241330 10.788307 163 158 152
1.294143 -2.294884 11.013261 164 159 153
1.214653 -2.183281 10.311275 165 160 154
0.114856 -0.737634 2.200828 174 171 164
1.243245 -2.207100 10.298106 191 188 179
0.415141 -1.123934 4.278321 214 212 200
0.552781 -1.299104 5.199726 234 232 220
0.758634 -1.561354 6.582113 241 239 226
0.136568 -0.755721 2.190829 216 214 201
0.342137 -1.017734 3.573347 202 200 187
0.415830 -1.109379 4.031805 170 168 155
0.910536 -1.733277 7.250751 127 123 111
1.056962 -1.507302 1.520741 130 130 120
0.960649 -1.411942 1.318900 153 153 141
0.863767 -1.316109 1.117320 181 182 168
2.092343 -2.521081 3.505884 214 214 206
1.284897 -1.727434 1.908163 160 158 159
1.493680 -1.931611 2.304406 80 78 83
1.294151 -1.735142 1.903901 41 39 40
1.298778 -1.738997 1.901770 30 29 27
1.308032 -1.746705 1.897508 32 32 30
1.312659 -1.750559 1.895378 30 30 28
1.836207 -2.262328 2.885251 30 30 28
1.738187 -2.165547 2.684195 33 34 29
1.222186 -1.660066 1.690846 34 35 30
1.540441 -1.970564 2.282870 31 30 25
3.748995 -4.128035 6.435893 36 36 28
2.392482 -2.801360 3.860052 48 48 40
0.923084 -1.365522 1.090001 44 44 36
1.455449 -1.884635 2.075814 45 46 41
1.248241 -1.681770 1.678846 32 33 28
0.933552 -1.374242 1.085180 16 17 12
0.830413 -1.273196 0.886482 19 20 14
0.833618 -1.275866 0.885006 56 54 41
1.265611 -1.696239 1.670847 133 129 117
1.269953 -1.699857 1.668847 221 217 206
2.034990 -2.443048 3.039900 237 232 228
2.908000 -3.291312 4.607425 216 213 208
3.025228 -3.404093 4.799634 148 145 138
3.143024 -3.517349 4.991582 90 90 82
2.715450 -3.100656 4.203706 73 74 69
3.051906 -3.426317 4.787347 74 73 69
1.743720 -2.155028 2.435448 90 87 82
1.754680 -2.164158 2.430401 140 137 128
1.981380 -2.383261 2.818391 143 140 131
1.876534 -2.280794 2.620479 147 144 135
1.882299 -2.285596 2.617824 153 149 140
4.451713 -4.773927 7.097051 156 149 141
4.687513 -5.000611 7.480850 155 148 138
5.036483 -5.336696 8.058728 154 147 137
4.263997 -4.587299 6.691106 152 148 137
2.136322 -2.527460 2.993231 155 151 140
1.352460 -1.768587 1.630848 157 150 140
0.904125 -1.334600 0.852534 171 163 152
1.814961 -2.214373 2.402638 201 193 182
3.299037 -3.647311 4.919730 224 218 206
1.141785 -1.562833 1.235477 228 224 212
1.717094 -2.117720 2.201512 230 226 214
2.295247 -2.674976 3.166237 229 225 213
2.416740 -2.791311 3.356482 229 225 213
1.617521 -2.019645 2.001172 225 221 209
4.739436 -5.028736 7.210738 223 219 207
1.858801 -2.250893 2.382447 223 219 207
3.720496 -4.043781 5.464223 224 218 206
0.910739 -1.816735 8.979788 158 155 146
0.894088 -1.788246 8.741128 159 156 147
0.788288 -1.641642 7.804540 161 158 149
0.961099 -1.858686 8.956594 162 159 152
1.095207 -2.028871 9.880145 163 160 153
1.078271 -2.000145 9.641616 165 162 155
1.167622 -2.103812 10.093122 165 160 154
1.244668 -2.197228 10.550296 168 163 157
1.163845 -2.086048 9.848534 176 169 163
0.375429 -1.063839 4.053428 188 185 180
0.388664 -1.074865 4.047333 228 226 214
1.087000 -1.963564 8.898611 238 236 223
0.800580 -1.593411 6.813566 225 223 208
0.810610 -1.601767 6.808946 213 211 196
0.313758 -0.968614 3.342845 191 189 176
0.387676 -1.059424 3.801459 149 147 135
0.885377 -1.678667 7.020841 148 144 132
1.060594 -1.503040 1.520918 164 165 151
1.064652 -1.506420 1.519049 187 188 174
1.371441 -1.805835 2.116743 212 212 200
1.882327 -2.304502 3.113096 224 224 214
1.990139 -2.408930 3.309771 208 207 202
1.386175 -1.818109 2.109957 147 146 144
1.186991 -1.622948 1.709035 82 80 83
1.191333 -1.626566 1.707035 58 56 61
1.195675 -1.630183 1.705035 52 51 49
0.994216 -1.433127 1.305160 31 30 26
3.090086 -3.471386 5.266474 30 30 28
2.369285 -2.768620 3.874140 33 32 30
1.335307 -1.761117 1.887056 33 32 27
5.652165 -5.956479 9.998388 34 34 26
2.821012 -3.203389 4.651411 45 45 35
0.926207 -1.361857 1.090153 41 41 33
1.459844 -1.879477 2.076028 36 35 30
1.890011 -2.296286 2.863228 28 27 23
2.748847 -3.128657 4.438318 19 18 13
1.047047 -1.477137 1.280829 25 24 19
1.050821 -1.480281 1.279091 80 78 66
1.269498 -1.691678 1.671036 151 147 136
1.058368 -1.486568 1.275615 219 215 206
1.926305 -2.326519 2.846513 238 233 227
2.040658 -2.436396 3.040176 183 180 173
2.915705 -3.282270 4.607800 114 111 104
2.488819 -2.868194 3.819089 79 79 71
3.151238 -3.507710 4.991982 69 70 62
3.707627 -4.044282 5.967379 82 83 78
1.633418 -2.038685 2.242418 103 102 98
1.638613 -2.043013 2.240025 130 127 122
1.870164 -2.265136 2.626040 146 142 131
5.867046 -6.120862 9.653096 148 144 133
4.561854 -4.858196 7.298263 152 143 136
4.909596 -5.191726 7.877095 153 144 135
5.147044 -5.418760 8.260395 152 143 134
3.476760 -3.808113 5.334719 153 144 135
3.599077 -3.924623 5.524714 160 151 142
1.803425 -2.194923 2.410449 168 159 150
1.582626 -1.981757 2.019481 188 180 169
3.062049 -3.404178 4.540401 213 203 193
1.819865 -2.208618 2.402877 230 220 210
1.027396 -1.446150 1.043551 230 224 212
1.830825 -2.217748 2.397830 229 225 213
3.783852 -4.093162 5.685945 231 227 215
4.023859 -4.322328 6.068066 227 223 211
2.077526 -2.452490 2.776868 226 222 210
2.198990 -2.568290 2.967256 222 218 206
5.097802 -5.348506 7.790416 223 219 207
3.023541 -3.357483 4.311807 224 220 208
2.915597 -3.252946 4.115193 226 220 206
0.863584 -1.726629 8.514328 160 157 148
0.875605 -1.736643 8.508792 161 158 149
0.678619 -1.459695 6.627849 164 161 154
1.059384 -1.946163 9.409984 164 161 154
-0.019552 -0.553645 1.280856 168 163 157
0.991241 -1.847078 8.701994 172 167 161
0.182398 -0.806516 2.666596 188 181 175
0.420594 -1.103686 4.282102 225 222 215
0.733140 -1.491005 6.356281 229 227 214
0.709123 -1.456892 6.120884 218 216 201
0.718301 -1.464537 6.116657 202 200 185
0.795571 -1.557119 6.573987 173 171 158
0.780448 -1.530414 6.334494 134 132 119
0.859709 -1.624654 6.790906 162 158 146
3.662953 -4.044461 6.978617 68 67 62
5.341311 -5.682388 10.395435 44 43 38
1.130082 -1.567744 1.737223 56 55 50
1.134425 -1.571362 1.735223 72 71 67
1.237657 -1.671463 1.934138 101 100 96
1.242284 -1.675317 1.932007 107 106 101
1.246911 -1.679172 1.929876 116 116 106
0.852566 -1.294246 1.125659 126 127 113
0.759233 -1.202391 0.922186 173 173 161
1.265418 -1.694589 1.921352 199 200 184
1.173507 -1.603918 1.717224 227 227 219
0.873502 -1.311686 1.116017 200 199 197
1.390571 -1.812951 2.110171 69 67 70
1.190877 -1.618387 1.709224 43 41 44
2.118502 -2.518082 3.500128 61 59 62
1.199562 -1.625622 1.705224 76 75 73
1.203904 -1.629240 1.703224 45 44 40
1.208247 -1.632857 1.701224 34 35 30
1.212589 -1.636474 1.699224 29 29 27
3.724314 -4.067362 6.457441 31 31 29
2.794283 -3.165663 4.667645 33 32 30
2.173718 -2.564078 3.474698 36 35 31
1.129155 -1.552865 1.491192 32 31 26
5.365884 -5.646430 9.398285 41 41 31
3.367323 -3.713554 5.636021 40 40 30
3.589922 -3.927197 6.026419 34 34 26
1.895425 -2.289933 2.863492 29 28 23
1.260357 -1.676265 1.677225 31 30 25
1.264699 -1.679883 1.675225 53 52 47
1.054198 -1.476317 1.279256 122 119 110
1.165678 -1.583289 1.474371 155 152 143
2.141651 -2.523258 3.243009 134 131 124
1.931718 -2.320166 2.846777 119 116 109
1.937767 -2.325205 2.843991 88 85 78
2.379191 -2.749348 3.626526 74 74 66
2.604634 -2.965361 4.015614 70 70 60
1.518264 -1.919322 2.051362 86 88 77
1.523175 -1.923413 2.049100 110 109 104
1.748049 -2.138952 2.438450 134 131 126
1.643263 -2.037556 2.240251 141 136 130
5.422028 -5.664985 8.879512 152 148 137
4.659061 -4.930669 7.505691 149 145 134
5.006145 -5.262118 8.085215 151 144 134
5.689999 -5.916425 9.249014 149 140 133
3.130075 -3.459493 4.759454 148 139 130
1.230607 -1.637377 1.444468 154 145 136
1.684829 -2.072181 2.221108 159 150 141
2.931103 -3.265531 4.358174 174 166 155
1.016562 -1.430858 1.050131 199 191 180
1.700416 -2.085165 2.213930 224 214 204
3.069753 -3.395137 4.540777 233 223 213
1.596844 -1.984781 2.015172 234 224 214
2.172992 -2.535259 2.982117 227 221 209
3.782769 -4.073736 5.691145 225 221 209
1.956026 -2.326308 2.589124 227 223 211
1.961791 -2.331110 2.586469 224 220 208
1.275246 -1.674562 1.423910 224 221 206
2.088989 -2.451176 2.774346 225 219 205
6.169420 -6.344007 9.521132 226 220 206
2.689748 -3.022156 3.729956 227 221 207
0.815410 -1.637719 8.048819 165 162 153
0.826862 -1.647259 8.043544 165 162 153
0.903560 -1.724747 8.254808 166 163 156
-0.013478 -0.552949 1.279520 171 166 160
1.110638 -1.965228 9.392377 183 178 172
0.283725 -0.922892 3.361932 203 198 192
0.322085 -0.968442 3.590853 222 217 211
0.599492 -1.308297 5.435795 237 235 223
0.674712 -1.398149 5.894328 221 219 206
0.683605 -1.405557 5.890232 213 211 196
1.134716 -1.958093 8.888113 189 187 172
0.872896 -1.631222 7.035992 150 146 134
0.196125 -0.795534 2.415925 153 149 137
0.024980 -0.584986 1.261808 167 164 149
4.849537 -5.174989 9.396536 58 57 52
1.129627 -1.559566 1.739412 76 75 70
1.133969 -1.563183 1.737413 97 96 91
1.138311 -1.566801 1.735413 105 104 99
1.142654 -1.570418 1.733413 114 113 108
0.948139 -1.381191 1.329821 129 129 121
0.951913 -1.384334 1.328083 138 138 128
0.855689 -1.290581 1.125812 165 165 153
0.762101 -1.199025 0.922326 211 211 201
1.779862 -2.182803 2.919472 220 220 208
1.075974 -1.501276 1.517534 179 178 174
1.181736 -1.602974 1.715413 122 120 125
1.084090 -1.508037 1.513796 62 59 66
0.781330 -1.215043 0.913470 41 39 44
1.297321 -1.712855 1.908768 32 30 33
1.610472 -2.014506 2.504309 42 41 39
4.606602 -4.904637 8.275482 56 57 52
5.654432 -5.913465 10.258780 37 38 33
1.315828 -1.728272 1.900245 33 34 29
5.407075 -5.666622 9.632937 29 29 27
4.164806 -4.468631 7.246013 31 30 26
4.912929 -5.187007 8.627578 35 34 30
1.027386 -1.447205 1.293324 35 34 29
1.136845 -1.551983 1.489500 31 31 23
5.591637 -5.833963 9.794525 37 37 27
5.607640 -5.847293 9.787155 40 40 30
1.468635 -1.869160 2.076457 41 41 33
0.832608 -1.257759 0.889854 45 44 39
0.942921 -1.363247 1.085637 59 56 51
1.590761 -1.984490 2.266800 91 88 83
1.057576 -1.472354 1.279420 118 115 110
1.817074 -2.200206 2.655746 96 95 90
1.822838 -2.205008 2.653092 72 71 66
2.262720 -2.625824 3.436854 69 69 61
2.378436 -2.735814 3.630149 64 64 56
1.512837 -1.905981 2.056100 73 73 63
1.517748 -1.910072 2.053838 96 96 86
1.632327 -2.019115 2.247657 124 124 112
1.637522 -2.023443 2.245264 137 137 129
1.091539 -1.500646 1.263778 144 141 134
2.642596 -2.983057 4.001665 147 143 134
3.213551 -3.526657 4.971650 150 146 135
4.670583 -4.917147 7.506252 149 145 134
5.241747 -5.460920 8.476141 146 139 129
5.815754 -6.007062 9.444719 143 134 125
3.025807 -3.343069 4.564940 149 140 131
2.696882 -3.028279 3.976664 163 155 144
1.576683 -1.959167 2.026695 182 174 163
1.242355 -1.639875 1.440907 205 197 186
2.153327 -2.507505 2.994060 228 220 209
4.546282 -4.786408 7.070324 233 225 214
3.314501 -3.610750 4.925157 230 222 211
6.071722 -6.233885 9.573421 231 225 213
2.766680 -3.086422 3.944518 227 223 211
1.966950 -2.325056 2.586721 222 218 206
3.938585 -4.198606 5.870673 224 218 204
2.442174 -2.775313 3.354207 224 218 204
3.146326 -3.443464 4.509435 224 218 204
1.524037 -1.901715 1.804354 226 220 206
1.645441 -2.016444 1.995029 224 218 206
1.426924 -2.362094 12.213318 165 162 153
-0.020225 -0.541574 1.284088 167 164 155
1.020084 -1.839992 8.946645 169 166 157
0.176456 -0.783925 2.673811 172 169 160
1.077260 -1.900706 9.167030 178 175 166
1.057854 -1.871455 8.929250 195 192 183
0.679664 -1.399390 6.142818 215 212 203
0.740614 -1.463248 6.361464 223 221 209
0.244537 -0.853724 2.889173 214 212 200
0.589603 -1.272025 5.197426 201 199 186
0.254929 -0.862380 2.884387 168 166 153
0.847572 -1.578518 6.805639 129 126 111
0.578882 -1.250009 4.955646 136 133 118
0.621761 -1.298814 5.182615 167 164 149
1.030909 -1.456449 1.540139 92 91 86
1.921878 -2.316414 3.350258 104 103 98
0.742536 -1.176970 0.932798 113 112 107
1.142198 -1.562240 1.735602 124 123 118
1.146540 -1.565857 1.733602 137 136 131
0.755355 -1.187649 0.926894 176 176 166
0.758560 -1.190319 0.925418 203 203 193
1.571536 -1.972230 2.524739 229 229 221
1.678121 -2.074103 2.722369 215 214 209
1.079606 -1.497014 1.517711 109 108 106
1.083664 -1.500395 1.515842 58 56 59
0.886726 -1.310170 1.113108 33 31 34
0.890215 -1.313076 1.111501 28 26 27
1.615377 -2.008750 2.504548 37 36 32
0.900683 -1.321796 1.106680 41 41 39
1.112071 -1.524058 1.502760 35 35 33
0.803428 -1.227695 0.904753 30 30 28
1.015669 -1.430668 1.300440 29 29 27
3.650386 -3.952581 6.254952 30 29 25
4.820353 -5.071129 8.430014 34 33 29
3.038220 -3.364121 5.056582 37 36 31
3.047397 -3.371765 5.052355 31 31 23
1.038311 -1.449529 1.290013 35 35 25
1.148593 -1.554482 1.485939 41 41 31
1.477942 -1.868093 2.074409 65 64 59
0.946044 -1.359583 1.085789 85 82 77
1.918350 -2.287305 2.858448 92 89 84
0.845091 -1.262402 0.885565 77 76 72
2.038663 -2.400613 3.049755 69 68 64
2.153496 -2.509357 3.243586 62 61 56
0.963490 -1.374116 1.077754 66 65 60
1.403253 -1.792790 1.862090 77 77 69
1.517233 -1.900823 2.056314 107 107 97
1.412507 -1.800498 1.857828 127 127 115
1.636977 -2.013658 2.247883 137 137 125
1.531966 -1.913096 2.049528 143 143 131
4.409627 -4.650473 7.138869 145 143 131
2.871086 -3.185638 4.393403 147 143 134
3.667139 -3.940366 5.753802 149 146 137
2.114663 -2.463923 3.014754 144 141 132
0.889960 -1.299778 0.864901 140 136 125
1.454148 -1.835187 1.838650 146 140 128
1.571256 -1.945826 2.031433 160 154 142
5.635728 -5.802697 9.041361 184 178 166
6.103078 -6.244351 9.812992 217 211 199
4.079346 -4.323000 6.304111 230 224 212
4.317752 -4.547768 6.687748 233 227 215
1.709716 -2.074251 2.214383 231 225 213
3.085162 -3.377054 4.541528 228 222 210
3.208243 -3.492668 4.731560 229 223 211
3.331892 -3.608756 4.921331 225 221 209
3.571151 -3.834235 5.304575 224 220 208
3.811547 -4.060661 5.687294 225 221 209
1.856500 -2.209611 2.393499 224 220 208
1.282510 -1.666037 1.424264 221 215 201
6.398416 -6.503460 9.923691 220 214 200
2.571716 -2.883915 3.544409 222 216 202
4.563604 -4.765654 6.821238 225 219 205
1.649837 -2.011285 1.995243 224 218 206
0.026570 -0.599949 1.757691 167 164 157
0.901096 -1.680538 8.266643 167 164 155
0.508362 -1.189912 5.238506 167 164 155
0.955967 -1.738822 8.488219 168 165 156
0.967988 -1.748836 8.482683 172 169 160
0.148885 -0.739564 2.441900 178 175 166
1.088783 -1.887185 9.167592 190 187 178
1.004052 -1.778878 8.466074 210 207 198
0.261224 -0.870869 3.130703 228 225 216
0.172019 -0.758835 2.431245 230 226 215
0.715410 -1.412686 6.130538 219 216 207
0.249187 -0.848267 2.889400 207 204 195
0.562557 -1.222483 4.966700 184 182 170
0.086949 -0.650246 1.729884 144 142 129
0.199781 -0.781961 2.418460 153 147 131
1.034541 -1.452186 1.540316 112 111 106
0.840999 -1.265812 1.135758 119 118 113
0.745404 -1.173604 0.932937 136 136 128
1.464974 -1.861045 2.329467 230 230 220
1.570961 -1.961909 2.527502 228 228 220
1.071064 -1.482611 1.523495 191 190 185
1.075122 -1.485991 1.521626 133 131 132
0.985083 -1.398412 1.316247 63 61 62
1.091354 -1.499513 1.514150 40 38 39
1.095412 -1.502893 1.512282 32 30 31
4.603719 -4.852930 8.289324 30 28 29
1.930333 -2.298998 3.102534 31 29 30
1.625761 -2.007559 2.502264 44 44 42
1.111645 -1.516415 1.504806 48 48 46
1.115703 -1.519796 1.502937 37 37 35
1.119761 -1.523176 1.501068 30 30 28
1.019046 -1.426704 1.300605 29 29 27
1.022820 -1.429848 1.298867 28 28 26
1.131935 -1.533318 1.495461 29 30 25
1.135993 -1.536698 1.493592 33 32 28
4.529175 -4.765684 7.829962 39 38 33
4.117556 -4.372498 7.032145 35 35 27
1.370379 -1.757096 1.879339 49 49 41
1.482338 -1.862935 2.074624 77 76 71
1.810099 -2.173691 2.664214 87 83 80
1.384260 -1.768659 1.872947 70 67 62
0.847960 -1.259036 0.885705 60 59 55
2.152801 -2.496894 3.246923 59 60 55
1.398140 -1.780222 1.866554 65 66 61
1.402767 -1.784076 1.864423 86 87 81
1.407394 -1.787930 1.862292 115 115 107
1.412021 -1.791785 1.860161 127 127 117
1.416648 -1.795639 1.858030 137 135 123
2.523036 -2.843032 3.816952 143 141 129
2.640967 -2.953846 4.009485 142 143 129
2.759467 -3.065134 4.201757 145 143 131
3.988829 -4.227541 6.350890 144 140 131
2.560390 -2.874149 3.799748 144 141 134
1.449036 -1.822619 1.843114 147 147 137
1.117162 -1.508437 1.255418 155 153 141
5.956342 -6.080293 9.641148 173 170 155
1.462916 -1.834182 1.836721 197 193 181
1.354523 -1.731313 1.639795 218 214 202
0.905648 -1.307091 0.859137 230 224 212
2.612686 -2.917712 3.775663 228 222 210
2.847904 -3.138803 4.161028 230 224 212
1.714366 -2.068794 2.214610 226 222 210
1.719562 -2.073123 2.212217 223 219 207
2.068937 -2.401884 2.791853 221 217 205
1.844964 -2.190160 2.401310 223 219 207
5.424598 -5.561891 8.404961 225 221 209
6.132373 -6.226931 9.560077 225 221 209
2.788317 -3.076592 3.941623 225 221 209
4.538300 -4.722987 6.838371 224 218 204
5.016053 -5.171264 7.605730 220 214 200
3.628604 -3.864592 5.282557 221 215 201
1.415318 -1.781956 1.611796 223 217 203
4.469099 -4.652766 6.623395 223 217 205
0.010186 -0.567459 1.519981 168 165 156
0.515557 -1.181468 5.238857 169 166 157
0.903422 -1.649335 8.023945 172 169 160
1.022989 -1.785129 8.709808 185 182 173
0.807758 -1.521389 7.080097 206 204 192
0.195070 -0.781791 2.669715 225 223 211
0.138175 -0.710269 2.201965 228 226 214
0.680803 -1.355313 5.903683 220 216 204
0.190041 -0.765539 2.425054 154 150 139
0.194668 -0.769393 2.422924 118 114 102
0.129165 -0.690700 1.959138 132 129 114
1.038173 -1.447924 1.540493 135 132 127
0.745067 -1.167569 0.934553 153 150 143
0.748272 -1.170238 0.933077 173 170 163
1.050348 -1.458066 1.534886 190 187 180
1.054406 -1.461446 1.533017 210 207 200
1.359041 -1.751406 2.133647 230 230 222
1.464428 -1.851260 2.332087 229 229 221
1.469624 -1.855588 2.329694 208 207 203
0.969592 -1.378731 1.325101 161 160 158
0.973366 -1.381874 1.323363 102 102 102
1.078754 -1.481729 1.521803 71 69 72
4.954962 -5.169126 9.121723 55 53 56
3.845813 -4.112477 6.915800 76 74 75
1.090928 -1.491870 1.516196 79 78 76
3.663783 -3.936714 6.505681 50 51 46
5.354968 -5.538533 9.678429 29 29 27
4.539571 -4.762777 8.078148 37 39 36
0.910418 -1.317374 1.105377 34 36 33
1.123393 -1.518914 1.501245 31 31 29
1.127451 -1.522294 1.499376 29 29 27
5.512153 -5.669471 9.606038 36 35 30
0.831599 -1.239651 0.894701 32 31 26
1.369893 -1.748382 1.881672 44 43 38
1.589125 -1.955135 2.274658 55 54 49
1.271560 -1.654405 1.679983 65 64 60
1.599516 -1.963791 2.269872 63 62 57
3.984132 -4.215636 6.605120 57 56 51
2.043667 -2.382034 3.053225 61 62 56
1.288930 -1.668874 1.671983 70 71 65
1.293273 -1.672492 1.669983 100 101 96
1.297615 -1.676109 1.667983 118 119 114
1.411535 -1.783071 1.862494 123 124 118
2.185195 -2.511994 3.235020 129 130 122
2.191813 -2.517507 3.231973 135 137 124
1.867138 -2.210854 2.640572 137 138 124
1.430042 -1.798488 1.853970 139 140 126
3.432659 -3.683864 5.377242 138 138 126
1.328012 -1.701431 1.653984 136 136 126
2.231518 -2.550583 3.213686 147 144 137
5.153699 -5.298488 8.289264 157 154 145
1.232961 -1.610187 1.450783 179 175 164
3.265724 -3.520675 4.960171 207 203 191
3.387892 -3.634507 5.150883 227 223 211
3.623903 -3.855237 5.536141 231 227 215
2.170332 -2.487549 2.994889 226 222 210
1.604604 -1.955966 2.020552 224 220 208
1.150729 -1.529622 1.241679 224 220 208
2.879218 -3.150451 4.150270 223 219 207
1.273542 -1.643991 1.432094 226 220 206
1.393149 -1.755691 1.623985 225 219 205
5.220022 -5.341672 8.011743 222 216 202
5.582105 -5.679487 8.585914 224 218 204
1.406177 -1.766543 1.617985 226 220 206
1.643894 -1.988695 2.002457 225 219 205
5.859792 -5.934934 8.951979 224 218 204
0.764956 -1.478763 7.351617 167 164 157
0.283251 -0.892641 3.619767 167 164 157
0.013309 -0.563795 1.520133 169 166 157
0.491131 -1.135129 5.006665 171 168 159
0.658419 -1.332250 6.165152 173 170 161
0.925124 -1.646846 8.019170 185 182 173
1.066478 -1.810810 8.942495 202 199 190
0.718711 -1.394027 6.384490 218 215 206
0.199465 -0.776633 2.669929 235 232 223
0.670977 -1.331157 5.912262 232 229 220
0.410966 -1.022137 4.055160 221 219 207
0.629292 -1.273326 5.437247 199 195 184
0.430819 -1.038675 4.046017 156 152 141
0.303914 -0.886748 3.116038 112 108 96
0.097478 -0.645463 1.728475 152 149 132
0.172459 -0.731030 2.188155 169 166 147
0.751141 -1.166872 0.933217 207 206 201
1.053980 -1.453803 1.535063 223 222 217
1.358525 -1.742156 2.136123 233 232 227
0.961649 -1.365337 1.330480 222 221 216
0.965423 -1.368480 1.328742 184 183 179
1.070212 -1.467325 1.527587 119 118 116
0.976744 -1.377911 1.323528 53 51 54
0.776780 -1.188230 0.921409 44 42 43
1.290751 -1.674145 1.920230 50 48 49
1.397815 -1.774886 2.118028 63 62 60
0.995612 -1.393629 1.314838 46 46 44
0.999386 -1.396772 1.313100 30 30 28
1.003159 -1.399916 1.311362 29 31 28
4.135027 -4.355428 7.282164 29 34 30
2.372050 -2.690424 3.893299 38 40 37
1.332392 -1.708834 1.901052 32 34 31
2.596986 -2.900907 4.283917 31 31 29
2.605025 -2.907604 4.280215 29 29 27
2.507499 -2.814809 4.078024 28 29 24
1.037122 -1.428208 1.295720 30 31 26
1.040896 -1.431351 1.293982 37 36 32
4.885999 -5.050324 8.418941 36 35 30
1.904347 -2.243051 2.873169 31 31 23
0.837672 -1.238955 0.893365 52 51 46
2.131559 -2.455430 3.262739 71 70 66
3.863636 -4.083140 6.418729 63 62 58
0.847287 -1.246964 0.888937 60 59 54
1.284132 -1.657079 1.676172 61 61 53
1.288474 -1.660696 1.674172 77 76 71
1.292817 -1.664313 1.672173 106 105 100
0.860106 -1.257643 0.883033 120 119 115
1.301502 -1.671548 1.668173 124 123 119
1.086180 -1.469074 1.273127 130 129 124
2.081001 -2.401761 3.038917 134 134 126
2.197735 -2.510557 3.232261 136 136 126
3.421890 -3.657390 5.386644 135 136 122
0.990305 -1.377655 1.070176 135 136 122
1.995080 -2.318634 2.831382 137 137 125
4.231897 -4.413016 6.743338 140 140 130
2.013227 -2.333751 2.823024 162 159 150
4.267108 -4.442348 6.727122 187 184 175
1.236593 -1.605924 1.450960 213 209 198
3.273938 -3.511036 4.960571 227 223 211
2.263912 -2.565683 3.201783 230 226 214
1.475825 -1.828317 1.834994 230 226 214
3.756724 -3.959421 5.726648 226 222 210
3.995235 -4.181212 6.111015 225 221 209
2.747912 -3.015079 3.967302 226 222 210
1.609000 -1.950807 2.020767 224 220 208
0.924204 -1.311038 0.853513 224 220 208
1.503587 -1.851443 1.822208 223 219 207
5.204853 -5.304383 8.024986 224 218 204
4.535775 -4.677707 6.850493 225 219 205
3.743215 -3.936614 5.485764 223 217 203
1.180522 -1.547663 1.229677 224 218 204
6.342256 -6.355844 9.725110 222 216 202
0.712964 -1.394333 6.885922 169 166 159
0.764333 -1.448167 7.109500 170 167 160
0.774648 -1.456759 7.104749 170 167 160
0.466195 -1.089387 4.774448 174 171 164
0.383800 -0.987623 4.070688 201 198 189
0.946827 -1.644358 8.014395 217 214 205
0.165935 -0.728840 2.440374 231 228 219
0.112081 -0.661893 1.970705 216 214 202
0.594266 -1.218158 5.209937 190 188 176
0.946669 -1.622142 7.519996 149 147 135
0.158976 -0.712000 2.196344 100 96 85
0.653390 -1.278452 5.429943 103 99 87
0.097082 -0.638356 1.730377 144 141 126
0.136429 -0.682175 1.959492 165 162 145
0.072260 -0.606636 1.494573 168 165 146
0.112176 -0.650930 1.723426 168 165 146
0.946158 -1.345656 1.339334 211 212 206
0.853857 -1.257724 1.134608 234 235 230
1.057612 -1.449541 1.535240 223 224 218
0.860836 -1.263538 1.131394 191 192 186
0.965026 -1.361373 1.330644 145 144 140
0.766828 -1.174185 0.927453 102 101 97
0.871304 -1.272258 1.126573 67 66 64
3.729773 -3.962616 6.732706 41 39 42
3.945472 -4.164383 7.127837 39 37 38
1.397299 -1.765636 2.120504 39 37 38
1.402211 -1.769728 2.118242 50 48 49
1.304145 -1.676994 1.916170 65 64 62
1.006537 -1.395952 1.311527 30 32 29
5.294424 -5.420600 9.473406 30 35 29
2.588102 -2.879069 4.291673 43 45 40
2.071305 -2.393353 3.293505 40 42 37
2.919936 -3.188622 4.880554 33 34 29
5.039552 -5.175158 8.849080 31 32 27
3.890107 -4.096178 6.658864 30 31 26
1.142831 -1.520531 1.495992 28 29 24
1.257621 -1.627196 1.690361 43 42 37
1.048047 -1.430532 1.292409 36 35 30
1.814047 -2.145924 2.670278 86 85 80
1.603620 -1.948549 2.272718 58 57 53
1.175296 -1.547575 1.481040 67 66 61
1.288018 -1.652518 1.676362 90 90 82
2.708697 -2.979527 4.236133 115 114 109
2.825970 -3.088260 4.429359 127 126 121
1.848634 -2.174736 2.654349 127 126 122
5.148463 -5.254841 8.551686 130 129 125
1.970250 -2.287087 2.845575 129 128 123
1.865928 -2.189142 2.646384 132 132 124
3.199556 -3.432594 4.999011 134 134 124
1.877457 -2.198746 2.641075 136 136 124
3.774031 -3.966357 5.970615 138 138 126
0.996917 -1.376897 1.068721 147 145 133
3.571644 -3.775679 5.569353 152 149 140
2.805173 -3.059894 4.191701 196 193 184
2.925859 -3.171470 4.383355 222 220 208
3.047113 -3.283520 4.574747 227 223 211
3.168937 -3.396044 4.765877 224 220 208
3.858825 -4.036992 5.931563 225 221 209
2.504020 -2.775899 3.588690 227 223 211
2.511206 -2.781886 3.585380 225 221 209
2.747098 -3.000473 3.971212 225 221 209
1.379210 -1.728483 1.634363 226 222 210
1.613395 -1.945649 2.020981 224 220 208
1.618307 -1.949740 2.018719 223 219 207
1.623218 -1.953832 2.016457 222 218 206
0.933482 -1.313011 0.850700 224 218 204
1.052746 -1.423403 1.043009 224 218 204
3.499445 -3.693450 5.108133 224 218 204
3.275651 -3.484940 4.716729 224 218 204
3.401456 -3.600781 4.906026 222 216 202
4.816991 -4.912463 7.220930 221 215 201
2.362482 -2.635910 3.159403 223 217 203
3.428988 -3.623715 4.893346 224 218 204
2.257668 -2.537555 2.960440 222 216 202
0.040080 -0.584095 1.758350 170 167 160
0.752033 -1.408865 6.872501 173 170 163
0.826326 -1.491816 7.333016 182 179 172
0.924092 -1.594321 7.782720 227 224 215
0.208256 -0.766317 2.670358 215 212 203
0.360616 -0.935362 3.589651 140 137 128
0.644192 -1.255841 5.437974 92 90 78
0.308243 -0.870671 3.119040 139 135 123
0.100459 -0.634392 1.730542 169 166 151
0.111780 -0.643823 1.725328 167 164 145
0.188917 -0.729143 2.184534 168 165 146
0.850002 -1.248246 1.137974 237 238 232
1.252764 -1.625883 1.941943 223 225 220
0.856980 -1.254060 1.134760 195 196 191
0.960856 -1.351123 1.334285 154 155 150
0.863959 -1.259873 1.131546 109 110 105
0.867448 -1.262780 1.129939 86 86 84
0.972177 -1.360553 1.329071 72 72 70
0.874426 -1.268593 1.126725 64 62 63
0.877916 -1.271500 1.125118 51 49 52
0.881405 -1.274406 1.123511 37 35 38
4.468120 -4.630831 8.129438 35 33 34
4.892213 -5.026236 8.923584 41 39 40
5.318580 -5.423537 9.716682 45 43 44
1.824442 -2.154763 2.915484 68 67 65
0.795336 -1.192177 0.915785 78 78 76
0.798541 -1.194847 0.914309 44 44 42
0.801746 -1.197516 0.912833 28 30 27
1.013688 -1.395133 1.309953 27 29 26
0.912808 -1.300566 1.109048 30 35 29
1.126173 -1.499367 1.505514 39 41 36
1.025009 -1.404563 1.304739 38 40 35
3.455427 -3.671386 5.874814 34 35 30
4.206277 -4.370582 7.260568 30 31 26
0.930255 -1.315099 1.101013 30 31 26
1.571901 -1.912795 2.289695 28 29 24
1.582292 -1.921451 2.284909 33 32 27
0.836999 -1.226884 0.896596 41 41 33
1.055198 -1.429712 1.290836 32 32 22
1.166753 -1.533171 1.486824 61 61 53
2.467602 -2.743188 3.856103 87 86 81
2.366723 -2.648622 3.655198 78 77 73
2.482544 -2.755635 3.849222 102 101 96
1.182986 -1.546693 1.479349 118 118 110
1.733061 -2.057577 2.462838 125 122 117
1.848029 -2.163880 2.657255 128 125 120
1.744021 -2.066707 2.457791 129 126 121
1.749501 -2.071272 2.455267 130 127 122
2.858392 -3.100320 4.418221 133 130 125
2.977342 -3.209940 4.610804 134 131 124
3.318680 -3.525877 5.195697 134 131 122
1.437839 -1.780055 1.856707 138 136 124
3.226124 -3.438245 4.990958 145 143 131
3.011775 -3.238624 4.594946 158 156 144
1.115577 -1.480009 1.263028 177 174 165
3.825915 -3.990542 5.951551 223 220 211
2.030103 -2.326083 2.820766 229 225 214
1.357042 -1.702218 1.646552 227 223 211
2.958281 -3.183530 4.372217 223 219 207
1.712184 -2.029654 2.225088 223 219 207
4.689769 -4.783874 7.285261 224 220 208
4.014716 -4.158350 6.111964 223 219 207
1.272263 -1.621063 1.438232 224 220 208
1.276321 -1.624444 1.436363 224 220 208
5.794421 -5.798860 9.002802 223 219 207
6.157658 -6.133039 9.577609 224 218 204
1.055869 -1.419738 1.043161 223 217 201
3.507913 -3.683513 5.108545 222 216 200
5.504373 -5.525648 8.394287 224 218 202
3.644003 -3.807410 5.293235 223 217 201
2.244336 -2.515076 2.969466 223 217 201
2.957082 -3.172000 4.125404 226 220 204
0.958784 -1.328333 0.840508 226 220 204
1.198598 -1.549167 1.224793 219 216 201
-0.019039 -0.508029 1.292307 172 167 161
0.236427 -0.801005 3.154613 170 165 159
-0.009424 -0.516038 1.287879 180 177 170
0.317639 -0.888699 3.612201 196 193 186
0.725192 -1.348451 6.394444 232 229 220
0.212652 -0.761158 2.670572 199 197 185
0.081194 -0.611567 1.741134 163 161 149
0.428734 -1.001285 4.056026 113 111 99
0.730426 -1.332769 5.897043 148 146 133
0.810347 -1.419387 6.355226 174 171 156
0.115157 -0.639859 1.725493 169 166 147
1.633315 -2.315379 11.173605 169 166 149
0.853124 -1.244582 1.138126 194 195 190
0.856614 -1.247488 1.136519 150 152 151
0.867082 -1.256208 1.131698 66 66 64
2.995990 -3.240077 5.348625 60 60 58
3.005451 -3.247959 5.344267 59 59 59
3.014913 -3.255841 5.339910 55 55 55
0.881039 -1.267835 1.125270 49 47 48
0.884528 -1.270741 1.123663 36 34 37
4.172255 -4.330163 7.529341 32 32 32
2.949843 -3.191615 5.122383 38 38 38
5.539051 -5.599008 10.117299 40 40 40
5.555338 -5.612576 10.109798 53 53 53
1.213284 -1.574666 1.714739 58 58 58
1.217627 -1.578283 1.712739 40 40 38
1.848002 -2.163526 2.907390 31 33 30
1.958674 -2.265739 3.103915 27 29 26
0.811024 -1.199490 0.910020 29 34 28
0.814229 -1.202160 0.908544 34 36 31
1.450292 -1.792141 2.100575 35 37 32
3.570420 -3.758674 6.074051 32 33 27
4.111245 -4.259299 7.062449 32 33 27
2.103003 -2.395990 3.284939 30 31 26
1.586942 -1.915995 2.285136 36 36 28
1.054802 -1.422605 1.292738 41 41 31
1.058576 -1.425748 1.291000 44 44 34
1.062349 -1.428892 1.289262 97 97 87
2.582609 -2.835596 4.054037 121 120 115
1.612921 -1.937635 2.273172 101 100 96
1.727006 -2.042691 2.468125 116 115 110
0.968270 -1.340501 1.085095 121 120 115
1.737966 -2.051821 2.463077 128 125 120
2.840870 -3.070775 4.430085 127 122 118
1.088765 -1.450897 1.277096 129 124 120
2.857518 -3.084643 4.422418 131 126 122
2.976438 -3.193727 4.615144 129 124 118
3.206806 -3.405671 5.004038 134 129 123
1.659682 -1.976588 2.251636 137 133 124
1.441980 -1.775195 1.856908 147 143 132
2.340472 -2.603828 3.423068 163 161 149
2.459392 -2.712912 3.615794 196 194 182
1.118954 -1.476045 1.263193 219 217 205
5.189851 -5.227949 8.298162 227 223 212
5.882794 -5.865312 9.463997 225 221 210
1.360928 -1.697657 1.646742 224 220 208
5.459335 -5.472477 8.669041 224 220 208
5.929949 -5.904593 9.442280 224 220 208
3.316933 -3.497410 4.953319 223 219 207
3.096956 -3.294122 4.559639 225 221 209
5.992823 -5.956969 9.413323 225 221 209
1.275895 -1.616801 1.438409 225 219 205
4.635682 -4.706188 7.068414 223 217 203
4.995986 -5.036392 7.644962 223 217 203
5.357995 -5.368017 8.220723 223 217 201
2.924079 -3.130070 4.144268 221 215 199
1.763595 -2.063150 2.203778 222 216 200
4.357253 -4.444187 6.454160 222 216 200
1.426065 -1.751917 1.616743 223 217 201
1.548398 -1.863844 1.807898 224 218 202
5.101256 -5.124085 7.596479 224 218 202
5.588650 -5.570179 8.361990 222 218 206
-0.016170 -0.504663 1.292446 172 167 161
0.018822 -0.543322 1.523956 174 169 163
0.535456 -1.125854 5.248016 182 177 171
1.514174 -2.226455 12.226010 194 191 184
1.530746 -2.240259 12.218378 206 203 196
0.822973 -1.441444 7.096598 224 221 212
1.145044 -1.795329 9.176891 225 223 211
0.217048 -0.756000 2.670786 172 170 157
0.840200 -1.446284 6.841039 109 107 94
1.069754 -1.694570 8.221066 113 111 98
0.201493 -0.733532 2.430325 155 153 140
0.844838 -1.440637 6.591278 180 178 165
0.747278 -1.330837 5.893335 186 184 169
0.467745 -1.021898 4.041076 177 174 159
0.583376 -1.146752 4.730697 171 168 153
0.078139 -0.592735 1.496637 170 167 152
0.118535 -0.635896 1.725657 171 168 151
1.014886 -1.610822 7.255837 171 168 151
0.756204 -1.148069 0.936728 105 105 105
0.859737 -1.243824 1.136671 69 70 72
0.863226 -1.246730 1.135064 50 50 50
4.196289 -4.337085 7.771636 48 48 48
3.905622 -4.066422 7.162629 53 53 53
4.323503 -4.452567 7.960672 62 62 62
0.778638 -1.166757 0.926396 51 51 51
0.781843 -1.169427 0.924920 47 47 47
1.092856 -1.457038 1.524557 37 37 37
5.243261 -5.294828 9.518075 36 36 36
4.013813 -4.156547 7.112801 45 45 45
2.881564 -3.108746 4.910387 52 52 52
5.706799 -5.719007 10.295091 43 43 41
1.330449 -1.673979 1.910383 34 36 33
5.739942 -5.746616 10.279827 29 31 28
0.813892 -1.196124 0.910160 25 30 26
1.027990 -1.393493 1.306807 32 34 29
1.031764 -1.396636 1.305069 36 38 33
2.307722 -2.573661 3.688922 34 35 29
3.059006 -3.266070 5.076291 32 33 27
2.535263 -2.782228 4.079377 31 32 26
3.291098 -3.478428 5.464650 31 32 26
1.479244 -1.807438 2.089480 31 32 27
1.161843 -1.514506 1.492785 34 34 26
1.812232 -2.113355 2.678997 42 42 30
1.061953 -1.421785 1.291165 73 73 61
1.065727 -1.424928 1.289427 139 141 130
3.132425 -3.327229 5.042478 131 132 126
2.815024 -3.034296 4.445783 116 115 111
3.696498 -3.844666 6.020817 118 117 112
2.503387 -2.746165 3.846433 125 122 117
3.169134 -3.357808 5.025571 131 126 120
1.858347 -2.151771 2.657758 129 124 118
0.871580 -1.244179 0.883592 130 125 119
0.874785 -1.246849 0.882116 133 128 122
2.651592 -2.879133 4.025802 134 129 123
2.103674 -2.375154 3.040022 140 136 127
2.221427 -2.482755 3.233416 151 147 136
1.111011 -1.462651 1.268571 174 170 159
3.130564 -3.316169 4.795710 203 199 188
3.139457 -3.323577 4.791614 225 221 210
4.499028 -4.570253 7.136960 231 227 216
1.469255 -1.789607 1.846456 225 221 210
2.948209 -3.145242 4.384444 223 219 208
5.003027 -5.028137 7.895341 221 217 205
1.597114 -1.905627 2.035195 222 218 206
2.973181 -3.166044 4.372943 222 218 206
3.096052 -3.277909 4.563979 222 218 206
3.793651 -3.916086 5.728448 224 220 208
2.537689 -2.765229 3.583011 224 220 208
4.622085 -4.672762 7.080286 227 221 207
4.634390 -4.683013 7.074618 225 219 205
4.530727 -4.587148 6.874736 223 217 203
3.031449 -3.214583 4.346108 222 216 202
5.253998 -5.246711 8.027381 223 217 203
5.851838 -5.792277 8.990169 221 215 201
3.524849 -3.663638 5.109371 222 216 202
3.651702 -3.778819 5.298573 223 217 203
3.779124 -3.894475 5.487514 223 217 203
3.907115 -4.010604 5.676192 222 216 202
4.153918 -4.235218 6.057776 221 215 201
4.401860 -4.460779 6.438836 221 215 201
2.393486 -2.626084 3.154174 221 217 205
0.018455 -0.536751 1.525715 173 168 162
0.021945 -0.539658 1.524108 179 174 168
0.262677 -0.803189 3.147519 223 220 211
0.144124 -0.668435 2.211101 210 208 196
0.015542 -0.525325 1.279302 144 142 127
0.126609 -0.644844 1.971413 132 130 115
0.060327 -0.571631 1.506431 157 155 140
0.028361 -0.536003 1.273398 179 177 162
1.321904 -1.928535 9.349061 177 173 161
0.121912 -0.631933 1.725822 175 172 157
0.088241 -0.594884 1.493575 174 171 156
0.765482 -1.150042 0.933916 51 49 50
2.589400 -2.831398 4.553488 43 41 42
4.626426 -4.708276 8.570422 52 52 52
1.080256 -1.439254 1.532210 56 56 56
0.787917 -1.168730 0.923584 48 48 48
0.791121 -1.171400 0.922108 37 37 37
0.794326 -1.174070 0.920632 32 32 32
0.901242 -1.272132 1.119146 31 31 31
0.800736 -1.179409 0.917680 45 45 45
3.525797 -3.683433 6.104265 58 58 58
2.592765 -2.825201 4.304184 37 39 36
3.021334 -3.218207 5.097824 27 29 26
1.133011 -1.483200 1.507914 25 29 28
0.925666 -1.292478 1.107898 31 33 30
1.459083 -1.781824 2.101004 36 38 33
0.826375 -1.200767 0.905872 36 37 31
0.829580 -1.203437 0.904396 34 35 27
0.832785 -1.206106 0.902920 32 33 25
2.764205 -2.977014 4.472981 31 32 26
5.887347 -5.839647 10.219493 29 30 24
5.150075 -5.162487 8.824764 33 30 21
1.493462 -1.810463 2.085171 47 47 35
1.498373 -1.814554 2.082909 119 120 106
2.154555 -2.415165 3.267230 161 163 150
4.990740 -5.011758 8.402637 130 131 123
1.185765 -1.527146 1.483617 127 126 122
2.393205 -2.631964 3.652829 123 122 117
1.632612 -1.935377 2.268839 131 128 123
3.067380 -3.247565 4.828863 129 124 118
2.414764 -2.649924 3.642899 129 124 118
2.421951 -2.655910 3.639590 133 128 122
1.985856 -2.256636 2.849416 134 130 121
0.880858 -1.246152 0.880780 145 141 132
0.995452 -1.350611 1.075758 160 156 147
5.689227 -5.638611 9.319720 189 185 174
2.905714 -3.094895 4.407809 214 210 199
3.026281 -3.204329 4.600037 229 225 214
4.160156 -4.238867 6.555373 231 227 216
1.915387 -2.188934 2.634116 228 224 213
3.854374 -3.957145 5.952938 222 218 207
4.092302 -4.173344 6.338869 221 217 206
3.761624 -3.870883 5.747900 221 217 205
4.000405 -4.087792 6.133438 223 219 207
1.033834 -1.382584 1.058081 222 218 206
0.925726 -1.283529 0.860116 223 219 207
0.928931 -1.286198 0.858640 223 219 207
4.054823 -4.133123 6.108376 225 219 205
4.413525 -4.458929 6.686438 223 217 203
4.657709 -4.680339 7.069488 221 215 201
1.524292 -1.827145 1.823218 220 214 200
1.645711 -1.937290 2.015052 222 216 202
1.182314 -1.515272 1.237452 221 215 201
2.477064 -2.692822 3.366452 222 216 202
2.248675 -2.484569 2.976129 224 218 204
2.255008 -2.489845 2.973212 224 218 204
1.315624 -1.635321 1.423811 225 219 205
2.386173 -2.608108 3.160558 225 219 205
2.511575 -2.721570 3.350559 224 218 204
5.852377 -5.756519 8.749072 220 216 205
-0.010434 -0.497931 1.292726 177 172 166
0.670992 -1.243838 6.184460 179 174 168
0.647589 -1.215853 5.947354 198 193 187
0.163506 -0.685270 2.452038 214 211 202
0.367030 -0.905743 3.845610 235 232 223
0.109950 -0.623680 1.980935 217 215 203
0.015205 -0.519289 1.280918 163 161 146
0.813553 -1.379572 6.614571 137 135 120
0.126183 -0.637202 1.973459 149 148 130
1.570990 -2.188797 11.471298 162 161 143
0.169723 -0.681961 2.201291 176 175 157
1.247398 -1.825861 8.893604 181 179 166
0.084385 -0.585406 1.496941 182 178 167
0.948429 -1.500415 6.800338 181 177 165
0.920760 -1.468877 6.565197 180 176 164
4.683471 -4.739121 8.798421 54 52 55
2.277693 -2.531323 3.957188 56 56 58
2.285164 -2.537547 3.953747 49 47 48
2.495445 -2.729693 4.352670 38 36 37
1.588278 -1.897604 2.539510 44 42 43
1.185862 -1.528427 1.733307 51 49 50
1.292463 -1.625717 1.932096 58 58 58
0.989461 -1.347843 1.327991 56 56 56
1.306343 -1.637280 1.925703 48 48 46
1.000782 -1.357274 1.322778 37 37 37
1.522958 -1.834702 2.321709 32 32 32
1.019650 -1.372992 1.314088 46 46 46
2.705063 -2.912799 4.504014 35 37 34
2.818774 -3.016011 4.699528 30 32 27
0.928789 -1.288814 1.108050 30 32 29
1.148817 -1.489079 1.502484 36 37 31
2.648198 -2.856941 4.282319 34 35 27
2.977518 -3.156737 4.874302 32 33 25
1.805257 -2.086841 2.687464 31 32 24
4.825558 -4.840506 8.237214 29 30 22
1.385000 -1.702803 1.889478 35 33 21
1.389627 -1.706657 1.887347 80 81 67
0.851678 -1.216089 0.895680 162 163 149
4.989268 -4.985369 8.409701 154 156 143
5.330532 -5.295116 8.996184 129 130 122
4.907924 -4.909118 8.199281 127 126 121
1.632067 -1.925592 2.271459 122 121 116
1.197514 -1.529645 1.480057 131 128 123
2.083345 -2.335472 3.055158 129 124 118
1.868666 -2.139662 2.658261 130 125 119
0.988107 -1.338227 1.080731 139 135 126
0.991596 -1.341133 1.079124 148 144 135
4.892658 -4.887913 7.958427 171 167 156
2.673229 -2.869303 4.022907 202 198 187
2.792912 -2.977491 4.215671 223 219 208
3.698651 -3.799902 5.781604 231 227 216
3.933960 -4.012897 6.169000 228 224 213
1.350876 -1.665887 1.657310 228 224 213
3.842662 -3.928354 5.963164 226 222 211
-0.007565 -0.494565 1.292866 176 173 164
-0.004360 -0.497235 1.291390 186 183 174
1.443592 -2.054444 11.537136 202 199 190
1.393071 -1.996403 11.064376 228 225 218
0.011664 -0.510583 1.284010 210 208 196
0.117640 -0.622798 1.979243 180 178 165
0.674363 -1.214209 5.691063 155 153 140
1.623273 -2.220078 11.950411 152 150 137
0.375587 -0.893520 3.596541 167 165 152
0.423364 -0.941297 3.822551 175 173 160
0.034098 -0.529271 1.273678 182 180 167
0.046918 -0.539950 1.267774 184 182 170
0.087508 -0.581741 1.497093 187 185 173
0.957406 -1.489880 6.800776 185 183 171
1.005391 -1.537831 7.026690 182 180 168
5.502719 -5.459723 10.411741 56 54 55
3.835954 -3.935644 6.963139 39 39 39
2.927634 -3.107191 5.149344 47 47 47
5.294610 -5.262430 9.763545 51 51 51
0.787244 -1.156659 0.926816 51 51 51
0.897020 -1.256083 1.124272 42 40 41
1.729713 -2.013560 2.724883 36 36 36
2.463023 -2.680269 4.123253 31 31 31
0.914466 -1.270616 1.116237 40 40 40
4.714296 -4.723169 8.294714 38 40 37
5.044947 -5.022543 8.886473 31 33 30
2.729161 -2.917924 4.496710 30 32 29
4.543058 -4.564568 7.877550 29 31 28
4.875701 -4.865601 8.468392 33 35 30
1.905950 -2.168347 2.891731 34 36 31
1.911999 -2.173386 2.888945 34 36 31
1.272255 -1.592596 1.695498 28 30 25
5.161594 -5.119712 8.832751 35 37 32
1.393768 -1.701797 1.887549 129 131 118
0.854546 -1.212723 0.895819 173 175 164
1.184913 -1.511861 1.487709 137 137 129
4.906483 -4.883265 8.206202 127 126 121
0.977347 -1.324199 1.337011 53 53 53
4.063162 -4.118771 7.360135 46 48 47
4.383770 -4.408246 7.956908 51 51 51
1.206662 -1.530157 1.727686 57 57 57
1.211005 -1.533775 1.725686 61 61 61
4.540311 -4.546115 8.132956 47 47 47
4.136996 -4.180276 7.326130 33 33 33
1.537454 -1.828116 2.319770 31 31 31
0.809341 -1.169311 0.918099 32 32 32
1.232717 -1.551862 1.715686 42 42 42
1.026405 -1.365065 1.314417 49 51 50
2.297517 -2.513537 3.706725 46 48 45
2.410599 -2.615205 3.902788 32 34 31
5.178758 -5.115293 9.079635 28 30 25
4.128976 -4.166128 7.081680 28 30 25
4.461245 -4.465317 7.673084 32 34 29
5.865555 -5.732214 10.252190 36 38 33
5.774809 -5.649153 10.045840 39 42 35
5.575891 -5.468516 9.641165 38 41 34
4.296969 -4.313537 7.252454 30 31 25
1.821340 -2.079534 2.685312 36 37 31
2.044015 -2.279963 3.079045 87 89 76
2.159088 -2.383288 3.274192 176 178 165
3.801071 -3.863106 6.240125 163 163 155
4.249189 -4.266268 7.026316 129 128 123
3.822838 -3.881239 6.230100 127 124 119
0.878840 -1.228407 1.135825 58 58 58
0.882330 -1.231313 1.134218 46 48 47
5.204290 -5.123779 9.571198 41 43 42
