ply
format ascii 1.0
element vertex 1241
property float x
property float y
property float z
property uchar red
property uchar green
property uchar blue
end_header
-0.230780 0.665934 1.420996 165 156 55
-0.281108 1.110523 2.980969 165 156 55
-0.287180 1.112315 2.981559 165 156 55
-0.249042 0.671323 1.422770 165 156 55
-0.299325 1.115898 2.982739 165 156 55
-0.277156 0.822865 1.943863 166 157 54
-0.344487 1.344094 3.764668 166 157 52
-0.378628 1.497415 4.286346 166 157 52
-0.274609 0.678867 1.425254 166 157 52
-0.488202 1.887864 5.592895 166 157 52
-0.228222 0.661194 1.420497 164 155 54
-0.487273 2.588395 8.183641 165 156 53
-0.341415 1.192877 3.245565 165 156 51
-0.286661 0.678438 1.426175 165 156 51
-0.516902 2.098857 6.372449 165 156 51
-0.468955 2.496821 7.921766 164 155 54
-0.570891 3.234331 10.522922 165 156 53
-0.481809 1.793184 5.331763 165 156 51
-0.324419 0.827082 1.947843 166 157 52
-0.281165 0.809453 1.943335 165 156 53
-0.377652 1.119137 2.989100 165 156 51
-0.340145 2.079526 6.612018 164 155 54
-0.277495 0.733642 1.683603 165 156 51
-0.271683 0.662064 1.423968 165 156 51
-0.316422 0.954718 2.464594 165 156 51
-0.278987 0.664220 1.424678 165 156 51
-0.482477 3.844315 13.101099 163 154 53
-0.355376 2.071235 6.612694 163 154 53
-0.258432 0.723592 1.681472 163 154 53
-0.262488 0.724789 1.681866 163 154 53
-0.258167 0.654091 1.422404 163 154 53
-0.577876 3.247659 10.778987 163 154 53
-0.495039 2.459562 7.921474 164 155 52
-0.269125 0.657325 1.423469 164 155 50
-0.276430 0.659480 1.424179 164 155 50
-0.280082 0.660558 1.424534 164 155 50
-0.291039 0.663791 1.425598 164 155 50
-0.294692 0.664869 1.425953 164 155 50
-0.298344 0.665947 1.426308 165 156 51
-0.301996 0.667025 1.426663 165 156 51
-0.512120 2.656566 8.699236 163 154 53
-0.499155 2.445792 7.920932 164 155 52
-0.467572 1.608677 4.809689 164 155 52
-0.356438 0.955036 2.467760 164 155 50
-0.672910 3.715852 12.598636 164 155 52
-0.612385 3.198366 10.778601 164 155 52
-0.339205 0.859749 2.205737 163 154 51
-0.404210 1.147822 3.247669 163 154 51
-0.315487 0.775798 1.943917 162 153 52
-0.323720 0.711884 1.685869 162 153 50
-0.277482 0.689390 1.680820 162 153 52
-0.349090 1.037835 2.981744 162 153 50
-0.386070 1.114210 3.244130 162 153 50
-0.363796 0.911249 2.465586 162 153 50
-0.397669 1.052170 2.986463 162 153 48
0.472059 0.586077 4.416867 218 212 198
0.555590 0.672013 5.179738 218 212 198
0.995406 1.390047 11.047902 215 209 195
1.025677 1.454838 11.558951 214 208 194
0.376134 0.688106 4.940178 214 208 194
0.390654 0.720683 5.195763 213 207 193
0.351845 0.732135 5.199533 213 207 193
0.304412 0.480596 3.404702 221 215 201
1.261219 1.473012 12.305613 214 208 194
0.734601 0.972820 7.731358 216 210 196
0.561743 0.805299 6.206346 216 210 196
0.325146 0.620164 4.430558 214 208 194
0.326854 0.692503 4.944328 212 206 192
0.100588 0.245384 1.368512 219 213 199
1.320838 1.360550 11.784501 220 214 200
1.300650 1.366508 11.786462 220 214 200
0.703682 0.930977 7.476480 215 209 195
0.082472 0.358674 2.141092 212 206 192
0.712984 0.793837 6.703093 217 211 197
0.850880 1.279670 10.542968 209 206 189
0.945348 1.427301 11.818213 209 206 189
0.796364 1.295756 10.548264 208 205 188
0.580175 0.681156 5.687737 217 211 197
0.790919 1.277538 10.547547 208 205 188
0.285599 0.414401 3.147341 214 208 194
1.161451 1.353703 12.051278 212 206 192
0.486136 0.731662 5.952982 210 204 190
0.839988 1.243233 10.541533 206 203 186
0.497283 0.865259 6.979217 206 203 186
1.263665 1.469983 13.323944 210 204 190
0.532036 0.773776 6.461378 210 204 190
0.660508 0.972336 8.246508 209 203 189
0.518580 0.845309 6.976289 206 203 186
1.060191 1.530025 13.343713 207 204 187
1.037582 1.536696 13.345909 205 202 185
1.200964 1.030380 9.990421 223 217 201
0.453944 0.483961 4.157194 218 212 196
0.437766 0.488735 4.158766 214 208 192
0.515375 0.732565 6.205419 215 209 195
0.234951 0.448558 3.408148 210 204 190
0.088317 0.325121 2.138524 205 202 185
0.480257 0.809611 6.722379 204 201 184
0.496935 0.528253 4.665955 214 208 192
0.434744 0.579506 4.928744 208 202 188
0.847208 0.984217 8.996614 212 206 192
1.101755 1.303921 12.052841 210 204 190
0.220822 0.478124 3.665796 204 201 184
0.088180 0.217167 1.367714 217 211 195
0.698383 0.816179 7.469680 200 194 180
0.894966 1.017862 9.504332 204 198 184
1.007587 1.146936 10.776984 206 200 186
0.218639 0.470823 3.665508 206 203 186
0.102343 0.342833 2.393213 206 203 186
0.161276 0.422827 3.157644 204 201 184
0.112808 0.372207 2.648915 205 202 185
0.624446 0.503238 4.909038 228 225 208
0.229816 0.267452 2.123776 222 219 202
0.905092 0.868723 8.475447 201 195 181
0.976972 0.943577 9.238537 209 203 189
1.017893 0.995544 9.747944 209 203 189
1.085336 1.071707 10.511465 202 196 182
1.205823 1.196260 11.783215 207 201 187
1.240291 1.250132 12.293248 202 196 182
0.588301 0.706032 6.452696 74 68 54
0.863885 0.976947 9.249524 151 145 131
1.002021 1.128313 10.776251 202 196 182
0.274715 0.446331 3.659561 215 209 195
0.681295 0.539480 5.416204 218 215 198
0.800420 0.693816 6.944611 222 219 204
0.540104 0.549562 5.173258 216 210 196
1.330342 1.169072 12.026396 214 208 194
0.170010 0.279794 2.129253 209 203 189
0.612540 0.749257 6.962865 197 191 177
0.892589 1.203502 11.298936 204 201 184
0.649026 1.022723 9.269292 204 201 184
0.859713 0.724937 7.451263 212 208 196
1.033100 0.860622 8.974232 207 203 191
0.679467 0.622419 6.185596 203 200 185
0.516585 0.514776 4.918242 214 211 196
0.447467 0.472889 4.411685 213 207 193
0.409468 0.452960 4.158741 190 184 170
1.361786 1.199611 12.535200 69 63 49
0.967289 0.911183 9.237262 105 99 85
1.007727 0.961533 9.746605 204 198 184
0.554997 0.659148 6.197689 91 85 71
0.543682 0.662487 6.198788 127 121 107
0.506893 0.642201 5.945727 196 190 176
0.076169 0.302181 2.138037 207 202 183
0.917608 0.570503 6.418291 230 222 211
0.302622 0.322157 2.885526 213 210 195
0.869050 0.707637 7.449441 211 207 195
0.887120 0.733006 7.704294 189 185 173
0.718390 0.629289 6.437646 160 156 144
0.737267 0.654420 6.692421 131 127 115
0.815722 0.723373 7.454623 185 182 167
0.534289 0.530108 5.172492 205 202 187
0.083801 0.202520 1.367137 46 42 30
1.362554 1.206740 12.790266 218 212 198
0.777238 0.765431 7.714970 207 201 187
0.791275 0.791990 7.970214 203 197 183
0.558183 0.615161 5.939995 183 177 163
1.167485 1.141496 11.782786 57 51 37
0.551606 0.647803 6.197242 209 203 189
0.360000 0.489434 4.419601 202 196 182
0.326155 0.468720 4.166281 202 196 182
0.765178 1.014600 9.769007 208 202 188
0.404348 0.376298 3.644968 215 213 200
0.397066 0.378447 3.645676 200 198 185
1.118532 0.861564 9.476933 91 87 75
1.099332 0.897491 9.735379 147 143 131
0.811727 0.710007 7.454097 112 108 96
0.616108 0.616425 6.190200 210 204 190
0.576737 0.597781 5.937444 86 80 66
0.510522 0.556797 5.430716 67 61 47
0.527665 0.582000 5.685631 68 62 48
0.400881 0.498367 4.671627 209 203 189
0.418024 0.523570 4.926542 211 205 191
0.024268 0.216102 1.372671 202 196 182
0.002354 0.222569 1.374800 203 198 179
1.373280 0.977075 11.246917 209 205 193
0.356038 0.352788 3.392610 179 175 163
0.754246 0.622960 6.689108 210 206 194
1.541811 1.165915 13.282966 209 205 193
0.717880 0.633691 6.692641 215 211 199
0.489628 0.492295 4.918948 165 159 147
0.545533 0.565262 5.683175 154 148 134
0.479963 0.524968 5.176439 47 41 27
0.388879 0.462382 4.415630 206 200 186
0.313218 0.454887 4.166428 203 197 183
0.147966 0.324723 2.643166 208 202 188
0.234674 0.418422 3.660954 199 193 179
0.367734 0.341831 3.391001 186 182 170
0.551933 0.463765 4.912256 57 53 41
0.668406 0.546921 5.927041 211 207 195
1.154129 0.873692 9.984253 208 204 192
0.585309 0.512679 5.422064 209 205 193
1.058932 0.843020 9.480452 66 62 50
0.496140 0.480229 4.917677 142 138 126
0.196610 0.274802 2.381526 197 193 181
0.542384 0.554727 5.682760 207 201 187
0.931471 1.027539 10.775462 206 200 184
0.746436 0.876471 8.997763 205 199 183
0.362989 0.578282 5.443664 202 197 178
0.654588 0.249680 3.362660 224 216 205
1.819507 0.687344 10.174914 229 221 210
0.489493 0.298397 3.378700 218 210 199
1.223331 0.631737 8.180856 228 220 209
1.324535 0.688697 8.940516 225 217 206
0.850641 0.481240 5.908587 217 209 198
0.915280 0.520049 6.415302 227 219 208
1.389395 0.756382 9.703707 220 212 201
0.806993 0.494120 5.912828 213 205 194
0.653019 0.481673 5.414793 222 214 203
0.675849 0.503878 5.669072 210 202 191
0.365673 0.334935 3.390730 180 174 162
0.654224 0.539200 5.927671 221 217 205
0.521250 0.462674 4.914600 124 120 108
0.464048 0.450612 4.663660 130 126 114
0.531753 0.517457 5.426574 178 174 162
0.549744 0.541090 5.681324 208 202 188
0.594619 0.585730 6.189959 207 201 187
0.283904 0.416946 3.911669 206 201 182
0.877780 0.965234 10.266409 203 198 179
0.930989 1.036357 11.030732 198 193 174
1.053000 1.202942 12.814361 205 200 181
0.180596 0.154033 1.356480 223 215 204
2.001804 0.927680 12.977153 225 217 206
1.704726 0.815834 11.210727 219 211 200
1.879666 0.906718 12.476079 195 187 176
1.435197 0.724361 9.698094 115 107 96
1.532408 0.781179 10.458059 116 108 97
0.937300 0.529267 6.668829 126 118 107
0.925178 0.532845 6.670007 176 168 157
0.767278 0.465433 5.659468 218 210 199
0.900934 0.539999 6.672362 208 200 189
0.532435 0.363725 4.143466 210 202 191
0.427627 0.366151 3.897179 216 210 198
0.579252 0.492416 5.421267 193 189 177
0.588629 0.518150 5.676825 192 188 176
0.169535 0.242801 2.126965 204 200 188
0.536086 0.533655 5.681930 91 88 73
0.188222 0.294289 2.638089 202 196 182
0.227993 0.339556 3.147165 206 200 186
0.016238 0.202533 1.372449 204 199 180
0.431300 0.650079 6.461521 201 196 177
0.336721 0.563983 5.444830 201 196 177
1.549188 0.447728 7.634318 214 206 195
0.465651 0.262362 3.123631 220 212 201
0.778802 0.394445 5.144744 215 207 196
1.362350 0.643168 8.934682 126 118 107
1.268304 0.614797 8.430934 69 61 50
1.330846 0.652464 8.937742 138 130 119
1.276754 0.640364 8.686555 190 182 171
1.185532 0.611160 8.182534 218 210 199
1.396190 0.717365 9.700720 220 212 201
0.178898 0.178611 1.612837 126 118 107
0.636561 0.408357 4.902121 203 195 184
0.170786 0.181004 1.613625 209 201 190
0.361550 0.321142 3.390187 217 211 199
0.576224 0.482284 5.420868 209 205 193
0.556013 0.488248 5.422831 70 66 54
0.459883 0.460492 4.919287 197 193 181
0.478035 0.483197 5.173965 188 184 172
0.387191 0.425820 4.413465 204 201 186
0.378699 0.428326 4.414290 200 197 182
0.396448 0.451150 4.669008 200 194 180
0.653515 0.852334 9.003550 200 195 176
0.616766 0.835117 8.750678 198 193 174
0.127751 0.334010 2.900018 201 196 177
0.912739 0.316716 4.874651 222 214 203
1.103962 0.426016 6.394560 218 210 199
2.057287 0.752371 11.943058 231 223 212
0.470186 0.253958 3.122746 224 216 205
0.664889 0.334611 4.385902 208 200 189
1.263825 0.599813 8.430344 230 222 211
1.287503 0.620447 8.684459 225 217 206
0.829919 0.451640 5.908356 227 219 208
0.149188 0.155332 1.359031 217 209 198
0.217941 0.190286 1.865180 227 219 208
0.535675 0.345118 4.142041 122 114 103
0.169571 0.176938 1.613465 187 179 168
0.788124 0.491594 6.168831 218 210 199
0.503320 0.354666 4.145185 212 204 193
0.258752 0.233486 2.374044 207 199 188
0.581851 0.441978 5.163213 219 213 201
0.352609 0.316275 3.390584 220 214 202
0.682088 0.550505 6.435548 216 212 200
0.104679 0.196087 1.619770 173 169 157
0.484830 0.470607 5.172640 208 204 192
1.219364 1.027251 12.280883 199 196 181
0.549537 0.755347 7.986913 201 196 177
0.835891 0.302066 4.625092 220 212 201
0.460905 0.195270 2.610430 217 209 198
0.468245 0.247466 3.122490 230 222 211
0.488126 0.268781 3.376946 223 215 204
0.358864 0.225381 2.620344 224 216 205
1.038965 0.513955 7.169232 222 214 203
0.686781 0.373248 4.895966 211 203 192
0.677482 0.375992 4.896870 188 180 169
0.705071 0.395032 5.150576 201 193 182
0.768339 0.430725 5.657203 216 208 197
0.747322 0.436927 5.659245 218 210 199
0.877914 0.507116 6.672105 185 177 166
0.750264 0.463240 5.915346 183 175 164
0.637157 0.415073 5.157175 206 198 187
0.538000 0.417151 4.910422 201 195 183
0.590378 0.456058 5.418107 213 209 197
0.500804 0.428127 4.914035 214 210 198
0.078697 0.172148 1.365629 210 206 194
0.067740 0.175381 1.366694 209 205 193
0.526638 0.502048 5.680686 210 206 194
0.382101 0.408792 4.412794 201 198 183
0.322940 0.399068 4.162155 203 197 181
0.479358 0.597543 6.454441 201 196 177
0.316986 0.509550 5.188282 202 197 178
0.327636 0.533589 5.443634 199 194 175
0.393630 0.128713 1.847499 209 201 190
0.541281 0.192108 2.858591 208 200 189
0.367926 0.163039 2.106356 216 208 197
0.466304 0.240974 3.122235 159 151 140
0.459829 0.242885 3.122864 60 52 41
0.673106 0.340397 4.640298 224 216 205
0.894496 0.435515 6.156944 193 185 174
0.655315 0.345647 4.642027 45 37 26
0.646420 0.348272 4.642891 103 95 84
0.765190 0.420189 5.656788 63 55 44
0.862564 0.471679 6.416406 164 156 145
0.495270 0.312650 3.888498 204 196 185
0.487584 0.314918 3.889245 222 214 203
0.584151 0.366646 4.648941 185 177 166
0.540908 0.352665 4.396783 65 57 46
0.566360 0.371896 4.650669 207 199 188
0.490383 0.340834 4.145332 218 210 199
0.556632 0.428249 5.164333 208 202 190
0.607559 0.466704 5.672104 204 198 186
0.417583 0.362316 4.152405 68 62 50
0.488719 0.421548 4.914572 203 199 187
0.450719 0.406020 4.661905 204 200 188
0.470121 0.427036 4.916379 222 218 206
0.488717 0.448290 5.170931 109 105 93
0.486295 0.475746 5.427526 192 190 177
0.476190 0.478728 5.428508 195 193 180
0.388450 0.424395 4.667954 208 204 192
0.991904 0.995078 11.787384 203 197 181
0.925607 0.961159 11.281107 199 193 177
0.033301 0.208300 1.626148 199 194 175
0.534163 0.702292 7.730109 200 195 176
0.541062 0.726997 7.985797 202 197 178
0.587619 0.793482 8.750352 199 194 175
0.585193 0.277730 3.879235 81 73 62
0.640270 0.314080 4.386547 217 209 198
0.863757 0.405940 5.902823 203 195 184
0.431986 0.244036 3.125125 51 43 32
0.463367 0.261077 3.378408 176 168 157
0.456488 0.263107 3.379076 211 203 192
0.449609 0.265137 3.379744 222 214 203
0.442730 0.267167 3.380413 213 205 194
0.823212 0.444205 6.163094 50 42 31
0.457530 0.289101 3.635306 141 133 122
0.650746 0.389893 5.154524 208 200 189
0.504137 0.327950 4.143441 89 81 70
0.631341 0.395618 5.156409 80 72 61
0.588219 0.382042 4.904267 191 183 172
0.479870 0.335111 4.145799 215 207 196
0.830530 0.520949 6.931378 214 206 195
0.431482 0.323088 3.894169 215 207 196
0.393054 0.334428 3.897902 208 202 190
0.504530 0.406738 4.912398 220 214 202
0.465844 0.391852 4.659825 110 104 92
0.390892 0.361367 4.154444 159 155 143
0.495512 0.435700 5.169606 212 208 196
0.084810 0.188675 1.620866 102 98 86
0.551643 0.524341 6.189479 195 191 179
0.463056 0.471578 5.429091 196 192 180
0.351535 0.399282 4.414599 193 189 177
0.398490 0.464330 5.179032 202 196 182
2.075744 0.527757 10.654097 206 198 187
2.203044 0.567776 11.410640 211 203 192
0.590576 0.267757 3.878185 232 224 213
0.442996 0.233722 3.123611 229 221 210
0.658879 0.325185 4.640460 97 89 78
0.612248 0.313084 4.388687 221 213 202
0.603756 0.315590 4.389512 226 218 207
0.595264 0.318096 4.390337 123 115 104
0.586772 0.320602 4.391162 42 34 23
0.712664 0.386898 5.404146 204 196 185
0.667242 0.374440 5.152256 207 199 188
0.587715 0.346185 4.647374 215 207 196
0.647838 0.380165 5.154141 203 195 184
0.706348 0.414622 5.661064 221 213 202
0.493624 0.322227 4.143908 168 160 149
0.552133 0.356684 4.650831 95 87 76
0.444550 0.310847 3.892372 71 63 52
0.469357 0.329388 4.146266 147 139 128
0.461268 0.331775 4.147052 212 204 193
0.484865 0.350673 4.401063 214 206 195
0.442404 0.363203 4.405188 203 195 184
0.521710 0.417384 5.166395 199 193 181
0.483145 0.402903 4.913838 182 176 164
0.445387 0.388183 4.661202 48 42 30
0.436492 0.390808 4.662067 73 67 55
0.455249 0.411135 4.916548 207 201 189
0.391451 0.378238 4.410139 197 193 181
0.570882 0.506319 6.186833 207 203 191
0.101119 0.205299 1.875307 179 175 163
0.500388 0.501259 5.937378 190 186 174
0.588794 0.578617 6.954005 196 193 178
0.332006 0.395780 4.415914 201 195 181
0.244725 0.369812 3.911786 202 196 182
0.810690 0.346946 5.393930 211 203 192
0.712829 0.324981 4.890885 199 191 180
0.741952 0.341809 5.144332 37 29 18
0.732250 0.344672 5.145274 186 178 167
0.572088 0.290248 4.135730 208 200 189
0.377942 0.220433 2.873211 123 115 104
0.960801 0.455178 6.917003 49 41 30
0.547822 0.297409 4.138088 197 189 178
1.223763 0.580950 8.941664 160 152 141
0.674037 0.361849 5.150930 56 48 37
0.664335 0.364712 5.151873 45 37 26
0.585049 0.337266 4.647023 130 122 111
0.472989 0.294070 3.889082 215 207 196
0.397333 0.265553 3.383880 213 205 194
0.424036 0.283094 3.637562 219 211 200
0.483111 0.316505 4.144375 209 201 190
0.442247 0.303142 3.892069 197 189 178
0.402189 0.289541 3.639684 70 62 51
0.139159 0.163788 1.615029 71 63 52
0.450755 0.326052 4.147518 206 198 187
0.473828 0.344665 4.401553 213 205 194
0.764894 0.538408 7.192313 212 204 193
0.489658 0.390836 4.912567 206 198 187
0.451617 0.376640 4.659987 216 208 197
0.527737 0.430442 5.421420 210 204 192
0.517632 0.433424 5.422402 145 139 127
0.479994 0.419109 5.169783 69 63 51
0.443164 0.404556 4.917085 123 117 105
0.380414 0.372230 4.410629 187 183 171
0.582498 0.515967 6.441205 203 199 187
0.070212 0.184133 1.621728 82 78 66
0.683876 0.638579 7.969013 200 197 182
0.766959 0.715747 8.986046 198 195 180
0.777853 0.320630 5.140178 48 40 29
0.926193 0.376781 6.150760 214 206 195
0.680234 0.299473 4.637165 198 190 179
0.748747 0.329219 5.143006 185 177 166
0.464061 0.238357 3.376925 215 207 196
1.019592 0.449145 7.166680 220 212 201
0.598666 0.298562 4.388842 46 38 27
0.443424 0.244447 3.378930 198 190 179
0.429666 0.248507 3.380267 77 69 58
0.493742 0.279561 3.886538 184 176 165
0.521131 0.296460 4.140126 102 94 83
0.582384 0.328348 4.646672 92 84 73
0.402151 0.256626 3.382940 217 209 198
0.429136 0.273644 3.636567 216 208 197
0.388393 0.260686 3.384277 57 49 38
0.447629 0.293169 3.891019 152 144 133
0.472598 0.310782 4.144841 211 203 192
0.432258 0.297704 3.892512 205 197 186
0.392725 0.284389 3.640104 134 126 115
0.416887 0.302240 3.894005 49 41 30
0.440242 0.320329 4.147985 191 183 172
0.585342 0.402418 5.415131 210 202 191
0.378459 0.313580 3.897739 209 201 190
0.370773 0.315847 3.898486 208 200 189
0.592056 0.450399 5.926975 205 197 186
0.327185 0.303729 3.646472 196 188 177
0.449676 0.392489 4.915814 201 193 182
0.386361 0.361210 4.409468 83 77 65
0.377869 0.363716 4.410294 71 65 53
0.107365 0.193726 1.874089 188 184 172
0.515672 0.472939 5.934397 207 203 191
0.199517 0.291439 3.146379 196 193 176
0.309931 0.383763 4.416894 206 203 184
0.591352 0.242373 3.876528 207 199 188
0.583666 0.244641 3.877275 157 149 138
0.456601 0.208513 3.120957 57 49 38
0.410736 0.197506 2.869192 213 205 194
0.716555 0.303592 4.889247 209 201 190
0.475758 0.227401 3.375317 145 137 126
0.736137 0.322355 5.143566 35 27 16
0.688658 0.311824 4.891958 227 219 208
0.455121 0.233491 3.377322 153 145 134
0.448242 0.235520 3.377990 44 36 25
0.434484 0.239580 3.379327 30 22 11
0.534885 0.283577 4.138235 215 207 196
0.413847 0.245670 3.381332 81 73 62
0.441518 0.262046 3.634864 106 98 87
0.468383 0.278659 3.888475 209 201 190
0.426954 0.266343 3.636279 221 213 202
0.437640 0.287731 3.891462 108 100 89
0.397825 0.274939 3.639109 214 206 195
0.422269 0.292267 3.892955 220 212 201
0.445907 0.309833 4.146880 139 131 120
0.437818 0.312220 4.147666 47 39 28
0.429729 0.314607 4.148452 191 183 172
0.602321 0.410924 5.669009 208 200 189
0.639917 0.448912 6.177798 199 191 180
0.657505 0.468263 6.432310 170 162 151
0.360785 0.310410 3.898929 71 63 52
0.353099 0.312678 3.899676 66 58 47
0.383816 0.352696 4.409133 212 204 193
0.375324 0.355202 4.409958 186 180 168
0.274026 0.311470 3.651137 205 201 189
0.031954 0.162032 1.368668 169 166 149
0.237615 0.322214 3.654675 198 195 176
2.134798 0.573875 12.180423 221 213 202
0.670006 0.258981 4.380746 210 202 191
0.461136 0.200109 3.120072 139 131 120
0.487454 0.216445 3.373709 210 202 191
0.713768 0.294269 4.888880 211 203 192
0.473696 0.220504 3.375045 125 117 106
0.422283 0.211575 3.123847 209 201 190
0.453059 0.226594 3.377050 162 154 143
0.630425 0.294761 4.640784 49 41 30
0.439301 0.230654 3.378387 167 159 148
0.432422 0.232684 3.379055 43 35 24
0.389905 0.221129 3.126993 216 208 197
0.411786 0.238773 3.381060 104 96 85
0.439336 0.254745 3.634577 117 109 98
0.398028 0.242833 3.382397 212 204 193
0.424771 0.259042 3.635992 215 207 196
0.435337 0.280026 3.891159 53 45 34
0.459661 0.296949 4.144989 132 124 113
0.388360 0.269787 3.639530 202 194 183
0.349875 0.257042 3.387075 217 209 198
0.496993 0.334135 4.653748 97 89 78
0.548889 0.367024 5.161093 85 77 66
0.599172 0.400388 5.668594 204 196 185
0.351949 0.280531 3.643067 214 206 195
0.373853 0.298169 3.897132 213 205 194
0.337384 0.284829 3.644482 76 68 57
0.358481 0.302705 3.898626 82 74 63
0.300973 0.295574 3.648020 45 37 26
0.346416 0.330366 4.155991 210 202 191
0.286409 0.299871 3.649435 202 196 184
0.264562 0.306318 3.651557 188 184 172
0.249997 0.310616 3.652972 192 189 174
0.030859 0.158370 1.368524 34 31 16
0.235433 0.314913 3.654388 172 169 154
0.461747 0.169203 2.863403 204 196 185
1.091293 0.338350 6.644723 199 191 180
0.743401 0.251719 4.629198 210 202 191
0.299377 0.146133 2.110682 129 121 110
0.452720 0.195528 3.120446 55 47 36
0.485392 0.209548 3.373437 206 198 187
0.471635 0.213608 3.374774 116 108 97
0.768260 0.315366 5.395280 48 40 29
0.420342 0.205082 3.123592 207 199 188
0.450998 0.219697 3.376779 211 203 192
0.387964 0.214637 3.126737 203 195 184
0.557062 0.283044 4.391136 216 208 197
0.479147 0.258713 3.886375 86 78 67
0.437153 0.247444 3.634290 97 89 78
0.463776 0.263249 3.887869 211 203 192
0.422589 0.251741 3.635705 200 192 181
0.448405 0.267785 3.889362 102 94 83
0.457237 0.288840 4.144670 39 31 20
0.480633 0.305597 4.398562 206 198 187
0.534304 0.337081 4.905679 205 197 186
0.494327 0.325217 4.653397 205 197 186
0.515706 0.342569 4.907486 43 35 24
0.506407 0.345313 4.908389 167 159 148
0.349767 0.273230 3.642780 183 175 164
0.342484 0.275379 3.643487 203 195 184
0.363864 0.292732 3.897576 188 180 169
0.327920 0.279677 3.644902 156 148 137
0.292782 0.266384 3.392151 132 124 113
0.340807 0.299535 3.899816 60 52 41
0.325436 0.304071 3.901309 172 164 153
0.291509 0.290421 3.648440 47 39 28
0.276944 0.294719 3.649855 200 194 182
0.065350 0.167869 1.621088 93 89 77
0.255097 0.301166 3.651978 193 190 175
0.247815 0.303315 3.652685 195 192 177
0.248580 0.326750 3.908776 193 189 177
0.240895 0.329018 3.909523 201 198 183
0.922068 0.212513 4.867367 205 197 186
1.004547 0.281059 5.883906 206 198 187
1.297880 0.357048 7.648372 203 195 184
1.585567 0.434703 9.413387 197 189 178
0.758526 0.237551 4.627118 182 174 163
0.834138 0.261681 5.132048 175 167 156
1.284790 0.384132 7.905782 193 185 174
0.814734 0.267407 5.133933 208 200 189
0.640857 0.225831 4.126275 220 212 201
0.417421 0.175658 2.867293 108 100 89
1.515401 0.501850 9.932480 93 85 74
0.912629 0.331403 6.148974 213 205 194
0.469573 0.206711 3.374502 104 96 85
0.765232 0.305235 5.394881 71 63 52
0.493229 0.222952 3.628342 214 206 195
0.448936 0.212801 3.376507 219 211 200
0.478665 0.227249 3.629757 169 161 150
0.398975 0.204323 3.125223 54 46 35
0.598407 0.284799 4.642675 60 52 41
0.476844 0.251008 3.886072 110 102 91
0.434971 0.240143 3.634002 80 72 61
0.461473 0.255543 3.887565 211 203 192
0.446102 0.260079 3.889059 180 172 161
1.578509 0.738659 12.743867 40 32 21
0.398560 0.250887 3.637540 218 210 199
0.423045 0.266883 3.891299 51 43 32
0.415360 0.269151 3.892046 144 136 125
0.438635 0.285504 4.145922 208 200 189
0.399988 0.273687 3.893539 200 192 181
0.362149 0.261632 3.641077 145 137 126
0.354866 0.263780 3.641785 123 115 104
0.347584 0.265929 3.642492 66 58 47
0.340302 0.268078 3.643200 42 34 23
0.333020 0.270227 3.643907 108 100 89
0.325737 0.272376 3.644615 199 191 180
0.346189 0.289562 3.898766 207 199 188
0.311173 0.276674 3.646030 202 194 183
0.330818 0.294098 3.900259 82 74 63
0.315447 0.298634 3.901753 163 155 144
0.282044 0.285269 3.648860 34 26 15
0.300076 0.303169 3.903246 198 192 180
0.267479 0.289567 3.650275 199 193 181
0.284705 0.307705 3.904740 42 36 24
0.252915 0.293865 3.651690 157 153 141
0.269334 0.312241 3.906233 196 192 180
0.238350 0.298163 3.653105 192 188 177
0.253963 0.316777 3.907726 127 123 111
0.238592 0.321313 3.909220 192 189 174
0.967060 0.211872 5.118468 196 188 177
1.251413 0.287431 6.883614 200 192 181
0.872787 0.216910 4.871517 199 191 180
0.863488 0.219654 4.872421 213 205 194
1.034013 0.260458 5.880294 206 198 187
0.221153 0.090263 1.349284 204 196 185
0.703144 0.198626 4.119669 195 187 176
0.695055 0.201013 4.120454 198 190 179
0.383567 0.133461 2.357945 122 114 103
0.378301 0.135015 2.358457 59 51 40
0.798397 0.238861 4.878745 115 107 96
0.563869 0.194162 3.620979 193 185 174
0.638433 0.217721 4.125956 209 201 190
0.582139 0.211552 3.875315 214 206 195
0.415602 0.169570 2.867054 81 73 62
0.448839 0.182544 3.119935 117 109 98
0.481270 0.195755 3.372894 213 205 194
0.782414 0.289140 5.392518 206 198 187
0.848508 0.315198 5.898318 89 81 70
0.762203 0.295104 5.394482 86 78 67
0.491047 0.215651 3.628055 218 210 199
0.476482 0.219948 3.629470 208 200 189
0.505283 0.234231 3.882782 186 178 167
0.390558 0.199741 3.125597 94 86 75
0.419359 0.214024 3.378909 132 124 113
0.440071 0.230693 3.633007 202 194 183
0.432789 0.232842 3.633715 41 33 22
0.459170 0.247838 3.887262 206 198 187
0.484744 0.263073 4.140888 215 207 196
0.443799 0.252374 3.888755 209 201 190
0.413056 0.261446 3.891742 176 168 157
0.282011 0.208991 2.880033 198 190 179
0.397685 0.265981 3.893236 208 200 189
0.420033 0.282168 4.147175 200 192 181
0.500834 0.326668 4.907655 199 191 180
0.345402 0.258628 3.642205 201 193 182
0.338120 0.260777 3.642913 201 193 182
0.330837 0.262926 3.643620 120 112 101
0.295538 0.250561 3.390939 50 42 31
0.316273 0.267224 3.645035 110 102 91
0.336201 0.284125 3.899209 200 192 181
0.248095 0.241780 3.139438 204 196 185
0.320830 0.288660 3.900703 50 42 31
0.272579 0.280117 3.649280 140 134 122
0.290087 0.297732 3.903690 200 194 182
0.282402 0.300000 3.904436 170 164 152
0.236168 0.290862 3.652818 200 196 185
0.251660 0.309071 3.907423 200 196 185
0.236288 0.313607 3.908916 187 184 169
1.189493 0.269697 6.632688 44 36 25
1.120414 0.267740 6.383317 43 35 24
0.260435 0.097028 1.601299 162 154 143
0.561687 0.186861 3.620692 76 68 57
0.636009 0.209612 4.125636 212 204 193
0.619831 0.214385 4.127208 202 194 183
0.446898 0.176051 3.119679 162 154 143
0.440423 0.177962 3.120308 206 198 187
0.817768 0.290023 5.644473 200 192 181
0.465450 0.192918 3.373959 90 82 71
0.796750 0.296225 5.646515 123 115 104
0.488864 0.208350 3.627767 208 200 189
0.474300 0.212647 3.629182 210 202 191
0.610866 0.261713 4.640244 211 203 192
0.530853 0.240641 4.135853 215 207 196
0.417298 0.207127 3.378638 203 195 184
0.437889 0.223392 3.632720 216 208 197
0.464552 0.237865 3.886212 60 52 41
0.456867 0.240133 3.886959 103 95 84
0.482320 0.254963 4.140568 211 203 192
0.441495 0.244669 3.888452 219 211 200
0.433810 0.246937 3.889199 218 210 199
0.362266 0.223366 3.383984 185 177 166
0.386913 0.238434 3.637672 197 189 178
0.379631 0.240583 3.638380 203 195 184
0.365066 0.244881 3.639795 219 211 200
0.357784 0.247030 3.640503 208 200 189
0.350502 0.249179 3.641210 199 191 180
0.343220 0.251327 3.641918 196 188 177
0.335937 0.253476 3.642625 195 187 176
0.328655 0.255625 3.643333 199 191 180
0.321373 0.257774 3.644040 209 201 190
0.314091 0.259923 3.644748 89 81 70
0.306808 0.262072 3.645455 42 34 23
0.326212 0.278687 3.899653 179 171 160
0.310841 0.283223 3.901146 126 118 107
0.303155 0.285491 3.901893 137 129 118
0.287784 0.290027 3.903386 202 194 183
0.037438 0.140490 1.366882 192 186 174
0.249356 0.301366 3.907120 189 185 174
0.233985 0.305902 3.908613 158 155 140
0.875066 0.174046 4.613966 199 191 180
0.867214 0.198264 4.870783 202 194 183
0.903033 0.209596 5.123358 202 194 183
0.714473 0.177633 4.117458 197 189 178
0.460541 0.143060 2.861855 204 196 185
0.525299 0.167752 3.367673 175 167 156
0.552222 0.181709 3.621112 213 205 194
0.457909 0.165737 3.118165 212 204 193
0.444958 0.169559 3.119424 186 178 167
0.477147 0.181961 3.372351 215 207 196
0.470268 0.183991 3.373020 205 197 186
0.456510 0.188051 3.374356 154 146 135
0.442989 0.213942 3.631725 195 187 176
0.435706 0.216091 3.632432 201 193 182
0.428424 0.218240 3.633140 74 66 55
0.421142 0.220389 3.633847 53 45 34
0.446878 0.234695 3.887402 200 192 181
0.455629 0.254014 4.142607 196 188 177
0.370166 0.235431 3.638800 218 210 199
0.423274 0.263562 4.145750 201 193 182
0.296018 0.213509 3.133894 46 38 27
0.289543 0.215420 3.134523 56 48 37
0.138142 0.150591 1.868958 58 50 39
0.305173 0.232708 3.389060 120 112 101
0.326473 0.248324 3.643045 189 181 170
0.319190 0.250473 3.643753 203 195 184
0.311908 0.252622 3.644460 209 201 190
0.304626 0.254771 3.645168 181 173 162
0.217648 0.214734 2.885453 40 32 21
0.316223 0.273250 3.900096 46 38 27
0.300852 0.277785 3.901589 176 168 157
0.236384 0.253007 3.395743 197 189 178
0.293852 0.301752 4.158325 122 114 103
0.215747 0.259097 3.397748 193 185 174
0.292117 0.324165 4.414548 204 200 189
0.448935 0.453098 6.447752 160 157 142
1.148004 0.212567 6.123002 198 190 179
1.089676 0.208318 5.872641 196 188 177
1.046027 0.221198 5.876882 135 127 116
0.720138 0.167136 4.116353 205 197 186
0.712049 0.169523 4.117139 197 189 178
0.214217 0.080355 1.349206 205 197 186
0.586451 0.163663 3.617287 208 200 189
0.579169 0.165812 3.617995 74 66 55
0.440504 0.142347 2.863385 165 157 146
0.671721 0.202884 4.377085 207 199 188
0.455968 0.159245 3.117910 179 171 160
0.754593 0.242813 5.137115 213 205 194
0.468206 0.177095 3.372748 207 199 188
0.790452 0.275154 5.645686 202 194 183
0.447569 0.183184 3.374753 201 193 182
0.413175 0.193334 3.378095 202 194 183
0.440806 0.206641 3.631438 218 210 199
0.433524 0.208790 3.632145 85 77 66
0.796985 0.337609 6.413133 57 49 38
0.785266 0.341067 6.414272 212 204 193
0.371901 0.205513 3.382105 202 194 183
0.172478 0.135594 1.865316 207 199 188
0.389831 0.221683 3.636390 208 200 189
0.351264 0.211603 3.384110 201 193 182
0.390776 0.242865 3.892326 154 146 135
0.317008 0.243172 3.643465 82 74 63
0.309726 0.245321 3.644173 188 180 169
1.295802 0.748401 13.021380 196 188 177
0.295161 0.249619 3.645588 210 202 191
0.313920 0.265544 3.899793 174 166 155
0.323783 0.284095 4.154862 144 136 125
0.290863 0.272348 3.902033 43 35 24
0.299516 0.291256 4.157220 131 123 112
0.504017 0.424059 6.441597 195 187 176
0.213686 0.252200 3.397477 194 186 175
0.424038 0.404738 5.937313 210 206 195
0.259072 0.303190 4.161149 29 25 13
0.402214 0.411178 5.939433 190 184 170
0.642527 0.139171 3.611340 188 180 169
0.897217 0.190142 5.122593 105 97 86
0.709625 0.161413 4.116820 179 171 160
0.701536 0.163800 4.117606 175 167 156
0.999109 0.223138 5.880692 197 189 178
0.901672 0.209848 5.378160 199 191 180
0.805848 0.196083 4.875470 216 208 197
1.021008 0.279739 6.646564 198 190 179
0.454028 0.152753 3.117654 118 110 99
0.447552 0.154664 3.118283 74 66 55
0.479903 0.166138 3.371140 215 207 196
0.434601 0.158485 3.119542 221 213 202
0.466145 0.170198 3.372477 173 165 154
0.421650 0.162307 3.120800 71 63 52
0.452387 0.174258 3.373813 201 193 182
0.411113 0.186437 3.377823 203 195 184
0.438624 0.199340 3.631150 153 145 134
0.424059 0.203638 3.632565 194 186 175
0.781754 0.329318 6.413809 208 200 189
0.802812 0.344125 6.667763 209 201 190
0.272720 0.164212 2.623270 172 164 153
0.267051 0.165885 2.623821 55 47 36
0.373084 0.218680 3.637518 209 201 190
0.335445 0.208766 3.385175 199 191 180
0.328566 0.210796 3.385843 190 182 171
0.351237 0.225127 3.639640 123 115 104
0.314808 0.214855 3.387180 38 30 19
0.166628 0.174497 2.377578 97 89 78
0.303931 0.260107 3.900236 196 188 177
0.220905 0.221544 3.140304 188 180 169
0.288560 0.264643 3.901730 198 190 179
0.402408 0.336153 5.170667 193 185 174
0.177575 0.213309 2.888514 213 205 194
0.289004 0.285533 4.157686 197 189 178
0.280915 0.287920 4.158472 202 194 183
0.386293 0.361929 5.428232 197 190 180
0.376188 0.364911 5.429214 98 92 80
0.387969 0.382455 5.684069 83 77 65
0.205592 0.268104 3.653791 196 190 176
0.640345 0.131870 3.611052 197 189 178
0.633062 0.134019 3.611760 206 198 187
1.283773 0.250718 7.388119 76 68 57
0.699112 0.155691 4.117286 65 57 46
0.691023 0.158078 4.118072 55 47 36
0.616736 0.159418 3.869318 138 130 119
0.692107 0.178339 4.373939 219 211 200
0.452087 0.146260 3.117399 43 35 24
0.439136 0.150082 3.118657 202 194 183
0.432660 0.151993 3.119286 194 186 175
0.426185 0.153904 3.119915 60 52 41
0.719671 0.231948 5.139177 121 113 102
0.450325 0.167361 3.373542 204 196 185
0.790445 0.293387 6.156189 214 206 195
0.607786 0.244383 4.894076 50 42 31
1.038738 0.384767 8.179842 96 88 77
1.224969 0.453299 9.697580 203 195 184
0.282360 0.155183 2.621945 217 209 198
0.276691 0.156856 2.622496 170 162 151
0.271022 0.158528 2.623046 36 28 17
0.329050 0.182567 3.129352 166 158 147
0.259684 0.161874 2.624148 197 189 178
0.409226 0.220651 3.889479 35 27 16
0.401540 0.222919 3.890226 186 178 167
0.407913 0.241619 4.145579 203 195 184
0.254695 0.183927 2.880605 206 198 187
0.248623 0.185719 2.881195 192 184 173
0.242551 0.187511 2.881785 161 153 142
0.264294 0.201675 3.135644 151 143 132
0.312643 0.228570 3.642891 163 155 144
0.251343 0.205497 3.136902 172 164 153
0.271473 0.220138 3.390919 200 192 181
0.107379 0.145074 1.871029 195 187 176
0.206117 0.198262 2.885324 202 194 183
0.200045 0.200054 2.885914 194 186 175
0.143987 0.175433 2.379417 193 185 174
0.187900 0.203637 2.887094 209 201 190
0.133456 0.178541 2.380440 201 193 182
0.175755 0.207221 2.888274 197 189 178
0.193062 0.222695 3.142565 193 185 174
0.117659 0.183203 2.381975 191 183 172
0.262313 0.284584 4.159725 66 58 47
0.036564 0.145390 1.621937 188 182 168
0.374311 0.375020 5.684675 207 201 187
0.630880 0.126718 3.611472 209 201 190
0.623598 0.128867 3.612180 196 188 177
0.527854 0.116838 3.109593 186 178 167
0.688599 0.149968 4.117753 202 194 183
0.680510 0.152355 4.118539 195 187 176
0.501951 0.124481 3.112110 209 201 190
0.664333 0.157129 4.120111 102 94 83
0.614433 0.151712 3.869015 43 35 24
0.689563 0.169825 4.373604 191 183 172
0.463098 0.135946 3.115885 147 139 128
0.371364 0.122734 2.612909 206 198 187
0.900208 0.248653 6.144749 206 198 187
0.621625 0.189872 4.380205 164 156 145
0.424244 0.147412 3.119660 54 46 35
0.455143 0.158435 3.372602 201 193 182
0.821605 0.291988 6.408330 208 200 189
0.400111 0.174674 3.377949 33 25 14
0.426977 0.186887 3.631283 168 160 149
0.252988 0.137524 2.368465 192 184 173
0.544164 0.232870 4.643675 208 200 189
0.535269 0.235495 4.644539 27 19 8
0.526373 0.238120 4.645403 160 152 141
0.263654 0.154518 2.623373 210 202 191
0.383284 0.199780 3.635528 64 56 45
0.376001 0.201929 3.636236 80 72 61
0.399237 0.215214 3.889922 197 189 178
0.354155 0.208376 3.638358 199 191 180
0.317564 0.199032 3.385969 197 189 178
0.310685 0.201062 3.386637 186 178 167
0.189800 0.156170 2.374604 203 195 184
0.174003 0.160831 2.376139 195 187 176
0.189957 0.176264 2.630534 212 204 193
0.392941 0.277494 4.658367 182 174 163
0.155943 0.186302 2.633838 48 40 29
0.214380 0.229480 3.395994 41 33 22
0.155719 0.206509 2.889804 156 148 137
0.370131 0.344648 5.428416 193 185 174
0.360026 0.347630 5.429398 193 185 172
0.742784 0.105453 3.856017 196 190 176
0.966112 0.138057 5.113903 192 184 173
0.661909 0.149019 4.119792 187 179 168
0.596759 0.148543 3.870205 193 185 174
0.670033 0.166322 4.374919 202 194 183
0.811743 0.203310 5.384818 187 179 168
0.566016 0.157614 3.873192 211 203 192
0.597198 0.168114 4.126079 202 194 183
0.428779 0.139008 3.118775 30 22 11
0.610588 0.183864 4.380694 154 146 135
0.676603 0.203786 4.886114 207 199 188
0.301638 0.137124 2.619294 204 196 185
0.424795 0.179586 3.630995 192 184 173
0.550394 0.221327 4.642459 195 189 177
1.165024 0.414276 9.445161 130 124 112
0.451598 0.211079 4.140225 60 52 41
0.162674 0.119028 1.865045 117 109 98
0.158215 0.120343 1.865479 200 192 181
0.305742 0.175315 3.130729 200 194 182
0.149297 0.122975 1.866345 199 191 180
0.204019 0.146229 2.372862 195 187 176
0.238911 0.175335 2.881305 161 153 142
0.232839 0.177127 2.881895 161 155 143
0.226767 0.178918 2.882485 134 128 116
0.167160 0.157106 2.376443 82 74 63
0.232956 0.216494 3.393717 196 188 177
0.106356 0.155347 2.126434 193 185 174
0.242739 0.233308 3.648684 190 182 171
0.114503 0.172644 2.381559 193 183 171
0.377208 0.331535 5.427036 194 186 173
0.257465 0.268365 4.159086 195 187 174
1.871230 0.207080 9.631302 189 183 169
1.902694 0.217057 9.884134 180 174 160
0.252573 0.049113 1.344227 183 177 163
0.772729 0.107493 4.108470 190 184 170
1.507081 0.237492 8.643125 190 182 171
0.743430 0.154660 4.623095 207 199 188
0.235704 0.073352 1.601755 208 200 189
0.560975 0.131456 3.617265 69 61 50
0.707848 0.165160 4.626552 142 134 123
1.258335 0.272372 8.155515 181 173 162
0.492293 0.132462 3.368049 179 171 160
0.563713 0.149909 3.872888 131 123 112
0.556028 0.152177 3.873635 52 44 33
0.548342 0.154445 3.874382 44 36 25
0.540656 0.156713 3.875128 167 159 148
0.570507 0.167165 4.128117 206 198 187
0.437177 0.167987 3.629293 202 194 183
0.422612 0.172285 3.630708 198 190 179
0.415330 0.174434 3.631416 196 188 177
0.303887 0.149537 2.874576 47 39 28
0.202146 0.121776 2.116794 111 101 91
0.197283 0.123211 2.117266 191 183 172
0.161338 0.114557 1.864869 202 194 183
0.187559 0.126081 2.118211 204 196 185
0.152420 0.117189 1.865736 199 191 180
0.118088 0.108059 1.613182 202 194 183
0.290850 0.172644 3.131732 32 24 13
0.313441 0.185239 3.385426 119 111 100
0.191910 0.144058 2.373677 188 180 167
0.165582 0.151827 2.376235 176 170 156
0.396505 0.257033 4.656801 194 186 173
0.103370 0.131662 1.870501 192 184 171
0.404150 0.274037 4.911947 192 184 173
0.440810 0.359524 6.187831 196 189 173
0.770305 0.099383 4.108151 186 180 166
0.524627 0.115416 3.364436 197 191 179
0.558793 0.124155 3.616978 205 199 187
0.470227 0.112648 3.113860 192 186 174
0.576781 0.137668 3.871091 79 73 61
0.608527 0.147121 4.123869 82 76 64
0.561410 0.142204 3.872585 102 96 84
0.813591 0.199535 5.639113 203 195 184
0.469183 0.169419 3.881545 196 188 177
0.420430 0.164984 3.630421 173 165 154
0.373290 0.160073 3.379139 115 107 96
0.527272 0.208740 4.643486 213 205 194
0.232457 0.126348 2.369377 197 189 178
0.289923 0.147032 2.875516 194 186 175
0.283850 0.148824 2.876106 191 183 172
0.155543 0.111402 1.865127 199 191 180
0.473898 0.224490 4.648671 43 35 24
0.171514 0.125510 2.119436 114 104 94
0.108761 0.106386 1.613810 201 191 181
0.150260 0.188245 2.889085 204 197 181
1.214791 0.106443 6.111081 193 187 173
0.956506 0.090755 4.857006 191 185 171
0.468287 0.106156 3.113604 196 190 176
0.501928 0.114609 3.366169 194 188 174
0.495049 0.116639 3.366838 198 192 178
0.409549 0.105107 2.863477 193 187 173
0.598014 0.141398 4.124335 192 186 172
0.731919 0.193789 5.390494 194 188 174
0.405623 0.143027 3.375526 197 189 178
0.296541 0.120074 2.618623 204 196 185
0.425530 0.155534 3.629426 31 23 12
0.418248 0.157683 3.630133 115 107 96
0.364350 0.155207 3.379536 192 182 172
0.199231 0.112026 2.116410 186 178 167
0.359990 0.174874 3.635793 91 81 71
0.174920 0.119201 2.118772 188 178 168
0.433109 0.208440 4.396191 196 188 177
0.194020 0.131945 2.372750 187 179 168
0.245597 0.153487 2.879406 194 186 173
0.115134 0.173604 2.636248 193 186 168
1.048995 0.107141 5.614801 193 187 173
0.335691 0.048514 1.847012 192 186 172
1.120876 0.121811 6.119429 195 189 175
0.458593 0.119892 3.369908 187 181 167
0.618962 0.180214 4.889163 198 190 179
0.300511 0.112717 2.617849 208 200 189
0.416065 0.150382 3.629846 194 186 175
0.757171 0.247076 6.410572 209 201 190
0.809313 0.267571 6.917118 138 130 119
0.765261 0.262630 6.665592 51 43 32
0.304455 0.147435 3.129077 193 185 174
0.866341 0.322507 7.934802 202 194 183
0.468567 0.206653 4.647969 200 192 181
0.168600 0.115760 2.119052 91 83 72
0.249849 0.145608 2.878577 54 48 36
0.466149 0.261189 5.415622 201 196 176
0.270420 0.193360 3.643996 189 184 165
0.458603 0.371061 6.951192 190 185 166
1.673431 0.156425 9.134310 188 182 168
0.408379 0.127204 3.374315 183 175 164
0.298812 0.107034 2.617625 158 150 139
0.394621 0.131264 3.375651 29 21 10
0.421165 0.140932 3.628851 199 191 180
0.895842 0.263374 7.419409 204 198 186
0.091141 0.080810 1.358909 201 193 182
0.266246 0.134144 2.876567 192 184 173
0.260174 0.135936 2.877157 174 168 156
0.428019 0.191412 4.395520 30 24 12
0.382855 0.187239 4.144130 64 61 46
0.236406 0.177951 3.391023 187 184 165
0.557605 0.380684 7.708049 194 189 170
0.607840 0.418363 8.470504 198 193 174
0.843934 0.558705 11.516907 191 186 167
0.440830 0.127185 3.626441 197 189 178
0.535873 0.150321 4.384459 55 47 36
1.673357 0.394734 12.969470 70 62 51
0.418983 0.133631 3.628564 197 189 178
0.641991 0.187251 5.397152 201 195 183
0.274438 0.108041 2.619604 172 166 154
0.365044 0.132487 3.378053 55 51 39
0.344407 0.138577 3.380058 71 65 53
0.307050 0.132539 3.127937 55 47 36
0.264427 0.128056 2.876328 48 42 30
0.380431 0.179129 4.143811 104 105 91
0.261721 0.145916 3.132341 188 189 175
0.152426 0.126984 2.375708 193 190 173
0.096689 0.109310 1.869621 183 182 164
0.564043 0.295556 6.683479 185 184 166
0.576350 0.308985 6.938034 186 185 167
0.107338 0.123228 2.124338 183 180 163
0.173342 0.154934 2.885177 192 189 172
0.582159 0.392575 8.216223 188 183 164
0.467000 0.078276 3.111953 187 181 167
0.981175 0.209103 7.409290 190 182 171
0.404256 0.113411 3.373772 195 185 175
0.424083 0.124181 3.627569 146 138 127
0.416801 0.126330 3.628276 193 187 175
0.409518 0.128479 3.628984 211 205 193
0.207990 0.088223 2.114225 65 61 49
0.272731 0.135602 3.130827 52 54 40
0.461821 0.196149 4.902518 189 190 176
0.193373 0.125777 2.627091 183 180 165
0.187704 0.127450 2.627642 189 186 171
0.156114 0.120151 2.374988 179 176 161
0.150848 0.121705 2.375500 123 120 105
0.129785 0.127920 2.377546 87 85 70
0.124520 0.129474 2.378058 151 148 131
0.119254 0.131028 2.378570 181 178 161
0.204767 0.172277 3.393154 190 185 166
0.465059 0.071783 3.111697 187 181 167
0.402195 0.106515 3.373500 193 185 174
0.421901 0.116880 3.627281 176 168 157
0.282378 0.093329 2.618055 201 193 182
0.407336 0.121178 3.628696 209 203 191
0.432307 0.129990 3.881966 71 67 55
0.347163 0.122753 3.378847 102 103 89
0.237026 0.106711 2.622461 40 41 27
0.486931 0.178595 4.899440 60 61 47
0.220019 0.111730 2.624114 131 133 119
0.214350 0.113403 2.624665 183 185 171
0.264315 0.131020 3.131201 184 185 171
0.257839 0.132931 3.131830 189 187 174
0.251364 0.134842 3.132459 162 160 147
0.077134 0.089170 1.615214 43 41 28
0.109286 0.112044 2.123481 144 145 131
0.146322 0.133477 2.631274 69 70 54
0.080112 0.120653 2.126316 194 188 172
0.140796 0.183650 3.398897 191 185 169
0.434283 0.105282 3.625579 189 183 171
0.419718 0.109579 3.626994 166 158 147
0.405154 0.113877 3.628409 197 191 179
0.430004 0.122285 3.881662 130 126 114
0.327131 0.105419 3.124654 22 23 9
0.277184 0.104417 2.873839 180 182 168
0.240996 0.099355 2.621687 187 189 175
0.235327 0.101028 2.622238 186 188 174
0.268850 0.122617 3.130316 178 180 166
0.236472 0.132171 3.133462 180 182 168
0.229996 0.134082 3.134091 187 189 175
0.097139 0.094583 1.868660 183 184 170
0.192172 0.129503 2.882098 186 187 173
0.210569 0.139815 3.135979 179 180 166
0.214402 0.154424 3.391274 181 185 168
0.078654 0.115778 2.126124 181 178 163
0.054343 0.122952 2.128486 195 189 173
0.548616 0.063599 3.613971 188 182 168
0.330015 0.082202 2.868289 188 182 170
0.323943 0.083994 2.868879 93 85 74
0.317871 0.085786 2.869469 98 90 79
0.443072 0.110044 3.879866 189 181 170
0.331666 0.097016 3.123769 188 184 172
0.281437 0.096537 2.873009 184 185 171
0.275365 0.098329 2.873599 186 187 173
0.174444 0.082207 2.116484 190 191 177
0.159857 0.086511 2.117901 39 41 27
0.177708 0.096545 2.371807 82 84 70
0.145270 0.090816 2.119318 173 175 161
0.095803 0.090112 1.868484 186 188 174
0.215104 0.131412 3.135094 193 195 181
0.184280 0.125207 2.882449 186 187 173
0.178208 0.126999 2.883039 182 184 170
1.019653 0.429527 12.004330 179 181 167
0.114579 0.130474 2.633580 186 181 162
0.028574 0.125251 2.130656 185 180 161
-0.010467 0.106170 1.623169 188 183 164
0.328196 0.076114 2.868050 191 183 172
0.322123 0.077906 2.868640 164 156 145
0.316051 0.079698 2.869230 36 28 17
0.342676 0.086702 3.122255 189 181 170
0.336201 0.088613 3.122884 199 191 180
0.260274 0.081296 2.619036 194 190 178
0.172987 0.077332 2.116292 50 51 37
0.101878 0.068594 1.611976 160 161 147
0.069965 0.063150 1.359464 182 183 169
0.395765 0.145340 4.395160 177 181 166
0.112303 0.080378 1.866575 188 192 177
0.077544 0.075775 1.614340 184 186 172
0.098926 0.084326 1.867875 137 138 124
0.094467 0.085642 1.868308 76 77 63
0.128739 0.105250 2.376203 42 40 27
0.100052 0.098854 2.123378 33 34 20
1.085372 0.461972 13.274595 98 99 85
0.685171 0.327433 8.968066 187 188 174
0.102410 0.113019 2.378761 203 201 188
0.086613 0.117680 2.380296 190 185 166
0.364074 0.243856 5.931913 190 185 166
0.056291 0.111767 2.127630 181 176 157
0.322433 0.285865 6.447184 186 181 162
0.320304 0.071818 2.868400 197 189 178
0.430780 0.096901 3.880006 183 175 164
0.277797 0.084361 2.872530 194 190 178
0.211412 0.075109 2.367810 184 180 168
0.206146 0.076663 2.368322 193 189 177
0.171530 0.072457 2.116100 187 183 171
0.325784 0.113463 3.634622 192 190 177
0.088495 0.068118 1.612998 182 183 169
0.084440 0.069315 1.613392 142 143 129
0.080384 0.070512 1.613786 70 71 57
0.118044 0.088240 2.121297 132 130 117
0.064161 0.075299 1.615362 185 181 169
0.914109 0.358057 10.989421 184 180 168
0.872234 0.355993 10.737905 185 181 169
0.790903 0.351152 10.234637 117 115 102
0.125990 0.129158 2.887279 184 181 164
0.003950 0.107487 1.876797 189 184 165
0.164339 0.041313 1.605351 193 185 174
0.385009 0.074061 3.372811 196 188 177
0.268214 0.066584 2.617487 43 35 24
0.262545 0.068256 2.618038 159 151 140
0.256876 0.069929 2.618589 187 179 168
0.251207 0.071602 2.619140 179 173 161
0.215099 0.068276 2.367091 185 179 167
0.131926 0.064858 1.864057 189 185 173
0.407660 0.123300 4.392839 182 178 166
0.222234 0.108113 3.133069 180 176 164
0.215758 0.110024 3.133698 192 186 174
0.023946 0.068760 1.363434 186 180 168
0.192399 0.130898 3.391525 92 88 76
0.616846 0.285263 8.461429 181 177 165
0.115152 0.111750 2.632358 205 201 189
0.960629 0.435470 13.028057 38 35 20
0.144526 0.131043 3.140619 185 182 165
0.371315 0.043516 2.862611 189 183 169
0.343330 0.065314 3.120859 187 179 168
0.341674 0.079344 3.376550 133 125 114
0.456068 0.099750 4.387554 189 179 169
0.178340 0.059838 2.114771 191 181 171
0.202990 0.066105 2.367906 184 176 165
0.197724 0.067659 2.368418 166 158 147
0.102287 0.055199 1.611102 44 38 26
0.154029 0.067012 2.117134 37 31 19
0.139442 0.071316 2.118551 184 178 166
0.055724 0.055398 1.360096 182 176 164
0.103835 0.068283 1.866481 194 188 176
0.077081 0.076177 1.869080 139 131 120
0.072622 0.077493 1.869513 61 55 43
0.190337 0.124001 3.391253 186 182 170
0.810357 0.374343 11.507957 186 183 166
0.110208 0.134105 3.143509 186 181 162
0.201412 0.060826 2.367698 40 30 20
0.105128 0.049936 1.610548 101 93 82
0.092961 0.053526 1.611730 191 185 173
0.115876 0.059865 1.865005 190 182 171
0.111417 0.061181 1.865438 196 188 177
0.506490 0.167311 6.170585 193 187 175
0.543470 0.182600 6.677996 190 184 172
0.270159 0.119143 3.894030 59 53 41
0.010800 0.064670 1.364210 189 187 174
0.844731 0.355715 11.758762 48 46 31
0.140645 0.118059 3.140108 180 177 160
0.331823 0.231953 6.443057 184 179 160
0.115334 0.151729 3.653570 183 178 159
0.175426 0.050088 2.114388 181 173 160
0.199834 0.055546 2.367490 191 183 170
0.107968 0.044673 1.609993 189 181 168
0.155977 0.055827 2.116277 187 179 166
0.609560 0.137212 6.415269 188 180 167
0.576390 0.172321 6.929440 182 179 164
0.611918 0.187159 7.436937 159 156 141
0.190510 0.096280 3.134819 174 172 157
0.618354 0.235902 8.458208 109 105 93
0.073317 0.080219 2.124308 41 37 25
0.328754 0.169431 5.420655 170 166 154
0.298304 0.020744 2.357562 181 175 161
0.293038 0.022298 2.358074 187 181 167
0.768844 0.150748 7.931669 194 187 171
0.436886 0.126498 5.409456 187 184 169
0.183686 0.079008 2.879591 187 184 169
0.177614 0.080799 2.880181 155 152 137
0.142370 0.078979 2.628159 184 182 167
