ply
format ascii 1.0
element vertex 1216
property float x
property float y
property float z
property uchar red
property uchar green
property uchar blue
end_header
0.141203 0.172996 2.816342 202 199 180
0.172579 0.414970 6.050711 197 194 175
0.298938 0.549406 7.689653 193 190 171
0.321954 0.591896 8.232212 189 186 169
0.229145 0.203530 3.102649 156 154 139
0.246182 0.225447 3.375015 150 149 131
0.244036 0.205339 3.105576 195 194 176
0.312676 0.352608 5.002187 190 188 173
0.320620 0.353573 5.003749 120 118 105
0.448671 0.627142 8.526141 49 47 34
0.415086 0.503980 6.905438 84 82 70
0.595640 0.783930 10.438152 110 108 95
0.270086 0.168812 2.572664 129 127 114
0.457488 0.489287 6.644757 114 112 99
0.493277 0.533329 7.189827 72 70 57
0.623950 0.707983 9.367650 62 60 47
0.682158 0.754750 9.917128 50 48 35
0.359362 0.239201 3.397266 119 117 104
0.760197 0.764234 9.932470 154 152 139
0.531486 0.438739 5.852255 165 163 150
0.416119 0.265945 3.677441 43 41 28
0.441392 0.288863 3.951426 117 113 101
0.447633 0.289622 3.952653 159 155 143
0.636653 0.491213 6.410964 158 154 142
0.688194 0.537170 6.959131 79 73 61
0.478838 0.293414 3.958788 48 44 32
0.399867 0.204430 2.867196 81 79 66
1.016995 0.775595 9.713939 150 151 137
0.647485 0.413142 5.337027 113 114 100
0.655855 0.414159 5.338673 144 145 131
0.612538 0.369202 4.792123 171 171 159
0.716455 0.441371 5.619603 136 133 118
0.752797 0.465634 5.895765 159 156 139
0.762019 0.466754 5.897578 169 163 147
1.366831 0.897495 10.858784 158 155 136
0.121301 0.641848 9.000944 201 198 179
0.235618 0.331159 4.718614 194 191 172
0.207853 0.165495 2.560753 191 188 171
0.211965 0.165994 2.561562 191 188 171
0.228480 0.208574 3.102909 125 124 106
0.217248 0.146350 2.293550 169 168 150
0.220935 0.146798 2.294275 194 193 175
0.311613 0.360681 5.002605 173 171 156
0.281591 0.255601 3.651451 114 112 99
0.453994 0.479415 6.375848 191 189 176
0.333928 0.261961 3.661741 182 180 167
0.339743 0.262668 3.662884 162 160 147
0.754545 0.860807 11.008791 132 130 117
0.676008 0.668686 8.571898 115 113 100
0.723179 0.714991 9.119272 151 149 136
0.521776 0.426794 5.582023 172 170 157
0.421834 0.292930 3.948073 118 116 103
0.576464 0.474012 6.130876 74 72 59
0.664884 0.545616 6.955410 148 144 132
0.959332 0.865408 10.780002 174 170 158
0.565822 0.391574 5.052582 102 98 86
0.502967 0.302790 3.964024 148 146 133
0.388790 0.187483 2.596326 165 166 152
0.882983 0.632980 7.805438 149 150 136
0.715278 0.450309 5.620066 119 116 101
1.067854 0.736592 8.917985 166 160 144
0.143229 0.099709 1.741121 202 199 180
0.083788 0.942249 12.761873 199 196 177
0.101893 0.985901 13.303600 200 197 178
0.150461 0.452929 6.316969 200 197 178
0.161270 0.537146 7.395429 202 199 180
0.175485 0.621777 8.474559 201 198 179
0.385629 1.061834 13.897550 193 190 171
0.286717 0.365858 4.998337 165 164 146
0.294661 0.366823 4.999899 191 190 172
0.244361 0.194903 2.837339 140 138 123
0.317313 0.348850 4.735268 159 157 144
0.439440 0.612403 7.988285 182 180 167
0.541857 0.811382 10.430174 90 88 75
0.411173 0.463886 6.099140 74 72 59
0.747849 1.085126 13.699678 80 78 65
0.236782 0.111078 1.759514 148 146 133
0.477708 0.534149 6.919473 162 160 147
0.501589 0.557778 7.193252 170 168 155
0.593235 0.693270 8.825772 183 181 168
0.634756 0.739768 9.372103 171 169 156
0.494212 0.432525 5.577298 64 62 49
0.546232 0.480299 6.125693 140 138 125
0.573519 0.504341 6.400141 160 158 145
0.630649 0.552736 6.949541 176 174 161
0.433480 0.300790 3.950855 124 122 109
0.691184 0.601544 7.499610 89 85 73
0.714735 0.604406 7.504240 170 166 154
0.458444 0.303823 3.955763 159 155 143
1.011889 0.909955 11.060750 96 92 80
0.943311 0.818717 9.970932 108 104 92
0.455270 0.282712 3.686055 148 144 132
0.388239 0.191662 2.596542 161 159 146
0.930156 0.651311 7.815675 117 115 100
1.161819 0.845271 10.013891 152 149 132
0.144108 0.123909 2.010635 203 200 181
0.145230 0.737845 9.815261 204 201 182
0.180869 0.911501 11.975207 200 197 178
0.337333 0.782356 10.122146 194 191 172
0.278715 0.351922 4.728273 151 150 132
0.208053 0.110514 1.754089 198 196 181
0.301270 0.354663 4.732707 150 148 133
0.316306 0.356490 4.735664 153 151 138
0.321423 0.335947 4.467552 164 162 149
0.514732 0.740418 9.349670 72 70 57
0.451297 0.499888 6.376907 85 83 70
0.474270 0.523846 6.650541 91 89 76
0.284884 0.183348 2.576546 76 74 61
0.344002 0.275194 3.664639 45 43 30
0.264754 0.138570 2.034354 68 66 53
0.399441 0.345428 4.482890 156 154 141
0.406534 0.346290 4.484285 179 177 164
0.721360 0.680866 8.313823 155 153 140
1.194184 1.203968 14.327364 169 165 153
0.868880 0.783456 9.419295 177 173 161
0.904626 0.808965 9.695440 170 166 154
0.830910 0.651848 7.797126 165 163 150
0.507537 0.316233 3.965907 123 121 108
0.586964 0.389382 4.788875 59 57 44
0.365835 0.150854 2.054227 149 146 129
0.098648 0.985956 12.767996 203 200 181
0.143161 0.321607 4.433065 202 199 180
0.149187 0.387154 5.241703 199 196 177
0.158188 0.582694 7.665832 198 195 176
0.172869 0.692504 9.014473 197 194 175
0.244580 0.290721 3.914702 157 156 136
0.292535 0.382969 5.000734 184 183 165
0.300264 0.362303 4.733103 182 180 165
0.621677 1.135937 13.947427 102 100 85
0.313382 0.342293 4.466531 164 162 147
0.327567 0.344016 4.469319 158 156 143
0.500313 0.516245 6.387338 149 147 134
0.450499 0.423771 5.300941 177 175 162
0.361866 0.261764 3.399458 182 180 167
0.267207 0.120630 1.765943 179 177 164
0.901898 0.910730 10.772706 110 108 95
0.957242 0.960666 11.321888 126 124 111
0.404982 0.267004 3.407935 137 135 122
0.450533 0.315750 3.955192 140 136 124
0.456774 0.316508 3.956419 158 154 142
1.028188 0.969287 11.335836 170 166 154
0.627984 0.488550 5.874136 84 80 68
0.724831 0.565135 6.700629 108 106 93
1.345989 1.202354 13.820675 87 85 72
0.707650 0.519837 6.158949 73 71 56
0.550615 0.349517 4.244019 157 158 142
0.106045 0.831448 10.617574 201 198 179
0.156331 0.220306 3.090291 197 194 175
0.318952 0.747097 9.313508 193 190 171
0.237771 0.274293 3.644671 195 194 174
0.284221 0.368117 4.730542 170 169 151
0.322446 0.460941 5.814795 188 186 171
0.306776 0.370858 4.734976 134 132 117
0.319525 0.350362 4.468298 167 165 152
0.340802 0.352948 4.472481 94 92 79
0.424270 0.429225 5.296444 49 47 34
0.296120 0.193205 2.579404 171 169 156
0.433005 0.364153 4.490608 182 180 167
0.371924 0.268551 3.401861 185 183 170
0.307436 0.172535 2.312444 174 172 159
0.311122 0.172983 2.313169 140 138 125
0.412228 0.295494 3.678969 63 61 48
1.212573 1.230455 14.065331 112 110 97
0.462180 0.323609 3.957974 147 145 132
0.626750 0.497921 5.874621 159 155 143
0.512108 0.329676 3.967790 136 134 119
0.123945 0.199011 2.815097 203 200 181
0.203862 0.838284 10.368918 199 196 177
0.223639 0.885656 10.911243 197 194 175
0.208826 0.321748 4.177876 195 192 173
0.198231 0.140586 2.022047 191 188 169
0.236993 0.280203 3.644977 194 193 173
0.229774 0.189388 2.566685 168 166 151
0.313288 0.379412 4.736849 154 152 137
0.580028 0.951451 11.250526 135 133 120
0.714366 1.215104 14.238337 153 151 138
0.484366 0.647529 7.731883 169 167 154
0.520322 0.696868 8.277388 116 114 101
0.250402 0.146926 2.032304 98 96 83
0.813737 1.204695 13.988655 85 83 70
0.381981 0.275338 3.404263 175 173 160
0.387371 0.275993 3.405323 180 178 165
0.392760 0.276648 3.406383 185 183 170
0.398150 0.277303 3.407442 168 166 153
0.403539 0.277958 3.408502 141 139 126
0.577459 0.478968 5.596440 55 53 40
1.127532 1.130408 12.704256 111 109 96
0.892468 0.832030 9.427425 147 145 132
0.473826 0.331468 3.960756 156 154 141
0.463787 0.307764 3.689564 174 170 158
0.649134 0.465194 5.341313 164 162 147
0.759511 0.568545 6.439885 142 140 125
1.054786 0.851755 9.459336 63 61 48
0.414824 0.211876 2.603066 141 138 123
0.029628 1.040420 12.759228 201 198 179
0.119036 0.340644 4.430001 201 198 179
0.201659 0.855011 10.369783 198 195 176
0.205300 0.672062 8.216485 196 193 174
0.173737 0.163900 2.286741 196 193 174
0.214600 0.329333 4.179537 197 194 175
0.214288 0.168828 2.294713 101 100 82
0.289727 0.384311 4.732810 156 154 139
0.297245 0.385225 4.734288 180 178 163
0.327318 0.388879 4.740201 102 100 85
0.273090 0.221822 2.844777 113 111 98
0.345997 0.368225 4.474621 156 154 141
0.388552 0.373397 4.482987 177 175 162
0.467519 0.497613 5.844771 186 184 171
0.516415 0.549403 6.392887 181 179 166
0.701319 0.732341 8.314002 173 171 158
1.140392 1.106634 12.169848 147 143 131
0.485473 0.339327 3.963538 163 159 147
0.491714 0.340086 3.964765 169 166 151
0.575421 0.419030 4.788977 168 165 148
0.582940 0.419944 4.790456 172 169 152
0.516678 0.343119 3.969673 169 168 150
0.622995 0.447735 5.067582 145 143 128
0.732718 0.552765 6.166161 77 75 60
1.199048 0.999142 10.835121 125 123 110
0.059969 0.667878 8.188942 203 201 180
0.115800 0.370937 4.699209 198 195 176
0.210108 0.172126 2.294182 191 190 172
0.296239 0.392865 4.734683 150 148 133
0.303757 0.393779 4.736162 173 171 156
0.320059 0.419123 5.008652 180 179 161
0.316677 0.371985 4.469416 197 195 182
0.323770 0.372847 4.470811 169 167 155
0.234505 0.128364 1.760408 57 55 43
0.261718 0.178398 2.304329 94 92 80
0.790721 1.177226 13.179744 151 149 137
0.380510 0.379743 4.481966 161 159 147
0.466285 0.506984 5.845256 178 176 163
0.460763 0.482949 5.574885 181 179 166
0.484728 0.509225 5.848882 178 176 163
0.353591 0.283017 3.399532 176 174 161
0.420377 0.361224 4.220518 178 176 163
0.291204 0.135254 1.771555 181 179 166
0.563196 0.472034 5.325738 131 129 116
0.888518 0.862021 9.428976 69 66 51
1.049921 1.021817 11.076420 85 82 67
1.067231 1.023920 11.079823 126 123 108
1.267208 1.235131 13.273421 145 142 125
0.497120 0.347186 3.966320 144 141 124
0.408622 0.242978 2.871780 147 144 127
0.316718 0.138355 1.776571 146 143 126
0.515843 0.349462 3.970001 115 114 96
0.477549 0.298081 3.423902 27 25 12
0.792701 0.616742 6.717285 104 102 89
0.760368 0.566086 6.172358 163 159 147
0.230252 0.725852 8.492769 198 195 176
0.301337 0.686885 7.968106 194 191 172
0.377101 0.696092 7.983001 91 89 74
0.294450 0.376607 4.465606 120 119 101
0.318995 0.427196 5.009069 155 154 136
0.354039 0.479061 5.554597 190 188 173
0.337006 0.381779 4.473972 192 190 178
0.344098 0.382641 4.475367 141 139 127
0.351191 0.383503 4.476761 97 95 83
0.285490 0.232700 2.847931 67 65 53
0.774041 1.101376 12.100823 116 114 102
0.793055 1.103687 12.104561 145 143 130
0.841442 1.157174 12.652712 154 152 139
0.461638 0.468334 5.306432 178 176 163
0.494768 0.496163 5.582264 179 177 164
0.288221 0.161622 2.040511 177 175 162
0.511857 0.474437 5.316305 172 170 157
0.541428 0.454227 5.052799 177 175 162
0.478898 0.327613 3.693911 63 60 43
0.446534 0.276074 3.148911 52 50 35
0.611000 0.438879 4.797158 150 148 135
0.618519 0.439793 4.798636 164 160 148
0.087735 0.795178 9.273871 204 201 182
0.220845 0.326500 3.912990 193 190 171
0.438680 1.201467 13.383154 190 189 169
0.308884 0.482655 5.546413 182 179 162
0.223867 0.181411 2.297469 132 129 112
0.244022 0.208103 2.570784 113 110 93
0.314779 0.386401 4.470162 153 150 133
0.331818 0.412714 4.742864 171 168 153
0.339336 0.413628 4.744342 182 178 166
0.260470 0.210102 2.574017 182 180 167
0.233746 0.134126 1.760706 191 189 176
0.321108 0.314442 3.663349 189 187 174
0.326923 0.315148 3.664492 165 163 150
0.371519 0.393296 4.481317 139 137 124
0.445374 0.523485 5.842599 89 87 74
0.662926 0.840835 9.117600 110 108 95
0.398593 0.372343 4.217287 144 142 129
0.405259 0.373154 4.218598 153 151 138
0.330262 0.242826 2.857091 168 166 153
0.435352 0.401053 4.493866 177 175 162
0.438380 0.304451 3.417052 141 138 121
0.443770 0.305105 3.418111 121 118 99
0.449159 0.305760 3.419171 103 100 83
0.454549 0.306415 3.420231 102 99 82
0.416483 0.253304 2.874042 126 125 107
0.584295 0.419154 4.523148 167 165 150
0.571929 0.393408 4.251365 163 160 145
0.079639 1.130300 12.775462 205 202 183
0.135336 0.396599 4.704829 202 199 180
0.142100 0.422104 4.975545 199 196 177
0.147086 0.644850 7.401000 204 201 182
0.158765 0.621587 7.133910 204 201 182
0.218910 0.554850 6.337576 197 194 175
0.283616 0.636760 7.158456 192 189 170
0.223374 0.185157 2.297662 195 192 175
0.227060 0.185605 2.298387 184 181 162
0.328015 0.395332 4.473324 121 118 103
0.335107 0.396194 4.474718 154 152 137
0.375700 0.475174 5.290857 161 159 144
0.360885 0.424009 4.749172 172 170 155
0.284275 0.241923 2.848408 186 184 169
0.364367 0.375068 4.211084 189 187 172
0.343591 0.323178 3.668228 178 176 161
0.377700 0.376688 4.213706 158 156 141
0.990822 1.364443 14.301530 92 90 75
0.329655 0.247438 2.857329 151 149 134
0.417701 0.381549 4.221570 160 158 143
0.424368 0.382359 4.222880 166 164 149
0.448587 0.409985 4.497028 174 172 159
0.509617 0.491448 5.317185 173 171 158
0.415423 0.282543 3.143577 170 167 148
0.420386 0.283146 3.144553 173 170 151
0.103471 0.350246 4.160318 205 202 185
0.143471 0.355107 4.168182 199 196 177
0.156845 0.381854 4.440231 197 194 175
0.523857 1.355965 14.480914 190 187 170
0.313736 0.325554 3.662817 90 88 73
0.355435 0.405988 4.479274 128 126 111
0.362528 0.406850 4.480668 145 143 128
0.279931 0.220959 2.578492 156 154 139
0.442906 0.542227 5.843569 171 169 154
0.397470 0.436218 4.756958 184 182 167
0.390142 0.385083 4.216677 178 176 161
0.396808 0.385894 4.217988 136 134 119
0.649834 0.768349 8.039608 110 108 93
0.355194 0.280349 3.132128 144 142 127
0.360157 0.280952 3.133104 164 162 147
0.365121 0.281555 3.134080 170 168 153
0.461823 0.418916 4.500190 175 173 158
1.235957 1.392259 14.082072 170 167 152
0.503476 0.398856 4.238959 168 165 146
0.329301 0.176714 2.049359 167 164 145
0.543477 0.403717 4.246823 166 163 146
0.101122 0.612459 6.854915 204 201 182
0.137845 0.233499 2.820336 201 198 179
0.258819 0.222639 2.574666 158 156 141
0.262932 0.223139 2.575474 112 110 95
0.255565 0.196682 2.304573 78 76 61
0.375764 0.415781 4.483830 111 109 94
0.382856 0.416643 4.485224 145 143 128
0.389949 0.417505 4.486619 161 159 144
0.402583 0.393479 4.219649 182 180 165
0.690838 0.811931 8.318119 137 135 120
0.811081 0.979913 9.958478 158 156 141
0.442583 0.398340 4.227513 169 167 152
0.767507 0.693441 6.985926 166 163 146
1.287709 1.293450 12.746715 165 162 145
0.976000 0.897709 8.913088 161 158 141
0.648392 0.500035 5.076335 159 156 139
0.112391 0.391098 4.432611 200 197 178
0.201237 0.687907 7.414433 199 196 177
0.225342 0.846843 9.036093 199 196 177
0.306365 0.336667 3.662285 188 186 171
0.342324 0.367038 3.938841 98 96 81
0.381690 0.397823 4.216068 109 107 92
0.388357 0.398633 4.217378 153 151 136
0.410277 0.427298 4.491175 162 160 145
0.417370 0.428160 4.492569 180 178 163
0.577488 0.629626 6.410456 137 135 120
0.441691 0.405115 4.227864 167 165 150
1.082780 1.367060 13.516454 174 171 156
1.123008 1.397950 13.793850 171 167 155
0.382288 0.267890 2.868751 172 169 154
1.312722 1.369003 13.292174 167 164 147
0.073238 0.658070 7.120677 200 197 178
0.133546 1.035568 10.905819 199 196 177
0.153997 0.403477 4.441350 196 193 174
0.245402 1.154924 12.005892 198 195 176
0.293636 0.288243 3.121200 181 179 164
0.323032 0.344697 3.666020 179 177 162
0.328847 0.345404 3.667164 183 181 166
0.334662 0.346110 3.668307 184 182 167
0.388050 0.431920 4.487364 99 97 82
0.774043 1.113405 11.031740 104 102 87
0.400798 0.407029 4.220350 139 137 122
0.420799 0.409459 4.224282 162 160 145
0.576140 0.639863 6.410986 83 81 66
0.604390 0.669736 6.686060 149 147 132
0.872754 1.046078 10.242586 171 167 155
0.229252 0.312424 3.378488 190 187 168
0.377899 0.787454 7.990130 190 187 168
0.423700 0.631738 6.381810 180 178 163
0.373239 0.410563 4.215458 186 183 168
0.294178 0.239673 2.582590 170 168 153
0.298290 0.240173 2.583399 109 107 92
0.413240 0.415424 4.223322 158 156 141
0.499908 0.425956 4.240361 167 164 147
1.471142 1.565437 14.674357 168 165 148
0.420722 0.969615 9.617071 187 184 165
0.506505 1.225919 12.060224 188 185 166
0.274953 0.350863 3.657486 188 185 166
0.488053 0.841198 8.282370 180 177 162
0.540265 0.847543 8.292635 186 183 168
0.669902 1.109176 10.744410 178 175 160
0.486095 0.677040 6.664459 182 179 164
0.289516 0.243353 2.581998 181 178 163
0.305964 0.245352 2.585232 99 97 82
0.389747 0.392133 3.949641 53 51 36
1.017658 1.506595 14.317417 128 126 111
1.040078 1.509320 14.321825 165 163 148
0.542187 0.465298 4.518786 166 163 146
0.392321 0.255846 2.602210 164 161 144
0.269707 0.495027 5.005019 190 187 170
0.481514 1.048197 10.169462 188 185 168
0.247843 0.242534 2.574130 184 181 164
0.453194 0.683882 6.658819 178 174 162
0.488635 0.743708 7.205029 177 173 161
0.435501 0.598453 5.846477 169 165 153
0.737817 1.245901 11.837578 159 155 143
0.275217 0.218102 2.309890 156 152 140
0.293077 0.248031 2.583023 164 160 148
0.267990 0.189464 2.038848 174 170 158
1.030961 1.559120 14.591422 109 107 94
0.334479 0.280822 2.860784 156 154 141
0.885174 1.125011 10.518443 171 167 155
1.142226 1.267287 11.647463 165 162 145
0.373960 0.882486 8.531653 188 185 168
0.307931 0.338680 3.395232 179 175 163
0.425046 0.606704 5.845149 128 124 112
0.296639 0.252710 2.584047 106 102 90
0.390563 0.433319 4.220441 145 141 129
0.397229 0.434129 4.221752 142 140 127
0.361826 0.345229 3.405827 106 104 91
0.333872 0.285434 2.861022 160 158 145
0.372605 0.346539 3.407946 174 172 159
0.845371 1.080770 9.972606 172 168 156
1.258275 1.582133 14.368259 167 164 149
1.024436 1.215327 11.086429 169 166 149
0.428791 0.960344 9.082873 187 184 169
0.278809 0.283428 2.850555 181 177 165
0.283347 0.283979 2.851447 146 142 130
0.390397 0.468821 4.490623 89 85 73
0.426461 0.530481 5.037090 65 61 49
0.361104 0.350706 3.406111 136 134 121
0.736086 0.940411 8.603910 152 148 136
0.286064 0.725169 6.898168 194 191 174
0.296988 0.726497 6.900316 189 186 169
0.394704 0.854685 7.998414 185 181 169
0.606731 1.491095 13.704259 184 180 168
0.229573 0.165817 1.762345 183 179 167
0.317267 0.350944 3.397917 156 152 140
0.375445 0.445248 4.218521 183 179 167
0.425398 0.538554 5.037507 182 178 166
0.359069 0.385102 3.675857 154 150 138
0.395445 0.447679 4.222453 136 132 120
0.417818 0.479476 4.496573 157 155 142
0.473306 0.573454 5.316648 171 169 156
0.961846 1.476094 13.234630 175 173 160
0.761779 1.073763 9.688912 155 153 140
0.658707 0.712298 6.431985 165 162 145
0.290095 0.707421 6.630067 185 182 165
0.203679 0.165597 1.757478 185 182 167
0.206514 0.165942 1.758035 187 183 171
0.634676 1.546279 13.981210 183 179 167
0.658498 1.431102 12.906871 184 180 168
0.636650 1.221822 11.014287 107 103 91
0.341883 0.418536 3.942693 158 154 142
0.636204 1.103696 9.935177 168 164 152
0.609850 0.923386 8.311463 172 168 156
0.440223 0.548558 5.041048 177 173 161
0.980236 1.617791 14.318902 177 173 161
0.568635 0.770788 6.954583 177 175 162
0.629061 0.866685 7.775729 150 148 135
0.393182 0.395252 3.683023 56 54 41
0.604453 1.625230 14.516581 186 182 171
0.394117 0.700944 6.381556 184 180 168
0.372741 0.608474 5.567986 183 179 167
0.299656 0.359933 3.395305 187 183 171
0.316806 0.391974 3.668466 141 137 125
0.782461 1.527032 13.472421 120 116 104
0.816641 1.561143 13.748930 159 155 143
0.366012 0.427912 3.947929 86 82 70
0.357513 0.396921 3.676469 103 99 87
0.818318 1.351645 11.860736 129 125 113
0.930459 1.545018 13.501517 115 111 99
0.487083 0.622370 5.590466 92 88 76
0.495879 0.623439 5.592195 46 44 31
0.339672 0.274923 2.593805 173 169 157
0.363208 0.307741 2.868221 173 169 157
0.288348 0.178814 1.774347 172 168 156
0.757518 0.924851 8.071735 170 167 152
0.459627 0.439288 3.966334 167 164 149
0.234116 0.418327 3.922491 189 185 173
0.576503 1.554230 13.703420 186 182 170
0.509855 1.181366 10.452445 182 178 166
0.269214 0.270607 2.580278 172 169 154
0.273327 0.271107 2.581086 104 100 88
0.716857 1.388904 12.112077 58 54 42
0.774813 1.487138 12.932939 113 109 97
0.379435 0.466384 4.220883 135 129 117
0.363609 0.373269 3.408303 89 85 73
0.940620 1.476891 12.695714 157 153 141
0.358063 0.311801 2.867568 173 169 157
0.696803 0.808923 6.981504 162 159 142
0.793710 0.942287 8.079846 168 165 148
0.201203 0.359098 3.376800 187 184 167
0.404407 1.339729 11.782293 189 185 173
0.206243 0.205527 2.028509 187 183 171
0.265208 0.459386 4.198952 184 180 168
0.360539 0.841011 7.455969 182 178 166
0.278541 0.461006 4.201573 182 178 166
0.355956 0.408741 3.677080 83 79 67
0.336630 0.344719 3.133568 138 134 122
0.357498 0.378091 3.407527 166 162 150
0.281239 0.214641 2.043253 166 162 150
0.194999 0.426461 3.915785 187 184 167
0.383331 1.356360 11.779616 188 184 172
0.474646 0.929589 8.019111 177 174 159
0.252838 0.245832 2.307817 175 172 157
0.254717 0.214784 2.038296 40 36 24
0.261238 0.215577 2.039579 159 155 143
0.675710 1.141681 9.677979 84 80 68
0.540938 0.812540 6.952584 68 64 52
0.335966 0.349763 3.133829 159 155 143
0.291914 0.571546 5.015024 187 183 171
0.644045 1.058361 8.863181 107 103 91
0.734770 1.227965 10.230634 164 160 148
0.750804 1.229914 10.233787 166 162 150
0.511418 0.534789 4.518332 166 163 146
0.209442 0.280326 2.569824 185 181 169
0.364411 0.974424 8.269388 183 179 167
0.298069 0.612651 5.286818 183 179 167
0.312218 0.389283 3.399900 66 62 50
0.317608 0.389938 3.400960 168 164 152
0.322997 0.390593 3.402020 176 172 160
0.291686 0.290321 2.585993 102 98 86
0.642184 1.072491 8.863912 138 134 122
0.579553 0.904102 7.501813 173 169 157
0.543037 0.706732 5.874892 170 166 154
0.314521 0.260941 2.320525 168 164 152
0.586744 0.679888 5.613528 165 162 145
0.205273 0.316661 2.839319 186 182 170
0.316886 0.395415 3.401243 163 161 148
0.951637 1.808950 14.595649 162 158 146
0.398447 0.470516 3.957259 173 169 157
0.862426 1.406968 11.338223 172 168 156
0.497824 0.645568 5.326750 172 168 156
0.276376 1.618339 13.384599 188 185 168
0.312568 0.631697 5.290989 186 182 170
0.250864 0.260817 2.308592 173 171 158
0.254551 0.261265 2.309317 157 155 142
0.491392 0.851637 6.946290 170 168 155
0.933812 1.797337 14.323922 166 162 150
0.853700 1.523325 12.147979 165 161 149
0.343236 0.371147 3.136825 173 169 157
0.707985 1.109201 8.879042 166 162 150
1.177035 1.859930 14.641764 169 165 153
0.344044 0.305176 2.596935 168 164 152
0.235455 0.798339 6.626777 184 181 164
0.305251 1.208512 9.881192 189 186 171
0.315756 0.908520 7.452738 185 181 169
0.261549 0.399819 3.391214 180 176 164
0.254057 0.265012 2.309510 123 124 110
0.237118 0.196005 1.766065 129 131 118
0.655150 1.351456 10.760155 117 119 106
0.242788 0.196694 1.767179 74 72 59
0.251293 0.197727 1.768851 168 164 152
0.259798 0.198761 1.770524 172 168 156
1.036904 1.866489 14.616017 160 156 144
1.105441 1.874817 14.629491 169 165 153
0.234050 0.809008 6.627329 182 179 160
0.215878 0.535489 4.463026 178 175 158
0.295143 1.155571 9.340254 184 181 164
0.272090 0.576234 4.744169 184 180 168
0.287127 0.578061 4.747125 182 178 166
0.984777 1.782000 13.797296 167 163 151
0.941873 1.607217 12.438405 171 167 155
0.190401 0.264888 2.297577 182 179 164
0.225534 0.337865 2.844734 180 176 164
0.292443 0.414703 3.398138 55 53 40
0.314001 0.417323 3.402377 134 136 122
0.293604 0.346137 2.858117 161 162 148
0.852931 1.479066 11.341952 170 166 154
0.654104 0.973955 7.521114 168 164 152
0.228864 0.621299 5.007015 182 179 164
0.257869 0.659617 5.282876 185 181 169
0.222589 0.307399 2.574355 182 178 166
0.516728 1.630487 12.628047 178 174 162
0.307890 0.422145 3.401600 105 106 92
0.419234 0.505262 3.963807 168 164 152
0.443847 0.543046 4.238805 169 165 153
0.241401 0.560560 4.469722 184 180 168
0.258664 0.421727 3.392348 177 173 161
0.451536 1.220284 9.374492 181 177 165
0.314181 0.604637 4.754223 181 177 165
0.295836 0.461477 3.669848 164 162 149
0.291001 0.425657 3.398705 81 79 66
0.255770 0.280445 2.311010 41 42 28
0.733911 1.325065 9.970391 169 165 153
0.372354 1.653964 12.602797 183 179 167
0.194921 0.241184 2.029113 187 183 171
0.508771 1.420837 10.738037 178 174 162
0.295058 0.467387 3.670153 179 175 163
0.237310 0.246336 2.037446 165 163 150
0.295669 0.431789 3.400048 108 106 93
0.364841 0.475867 3.683873 172 168 156
0.320181 0.327751 2.594190 169 165 153
0.222201 1.150662 8.791214 187 183 172
0.270369 1.662082 12.584314 186 182 170
0.381926 1.133961 8.552357 183 179 167
0.289558 0.436611 3.399272 179 177 164
0.376611 0.663861 5.037942 173 169 157
0.611144 1.234040 9.137939 170 166 154
0.580163 1.049716 7.780552 170 166 154
0.668465 1.241006 9.149209 170 166 154
0.359621 0.445125 3.413046 171 167 155
0.301656 1.869152 13.943496 185 181 169
0.411627 1.882516 13.965116 182 178 166
0.394270 1.222481 9.096433 179 175 163
0.311106 0.737206 5.566276 182 178 166
0.232724 0.325615 2.577645 180 176 164
0.462633 0.719069 5.325773 169 165 153
0.271317 0.220650 1.774353 166 162 150
-2.060173 0.791038 7.533716 231 227 215
-2.344758 0.904418 8.559073 227 223 211
-0.768224 0.319194 3.192163 228 224 213
-3.013437 1.193067 11.130876 229 225 214
-2.145313 0.891664 8.327957 227 223 211
-2.691772 1.121184 10.383135 229 225 213
-2.465602 1.037696 9.616621 238 234 222
-1.608984 0.734895 6.811440 234 230 218
0.168880 0.211129 1.754438 187 183 171
0.171715 0.211473 1.754995 184 180 168
0.202141 0.585081 4.464241 184 180 168
0.382187 1.346782 9.906167 182 178 166
0.391203 1.310887 9.637613 176 172 160
0.462519 1.615482 11.814245 177 173 161
0.518320 1.807218 13.176847 179 175 163
0.216437 0.253899 2.034114 180 176 164
0.362506 0.493596 3.684790 170 166 154
0.773155 1.431285 10.253357 170 166 154
-1.156914 0.464676 4.467972 227 223 211
-1.666936 0.664710 6.260222 227 223 211
-1.288895 0.523498 4.982745 228 224 212
-3.553193 1.446111 13.189106 228 224 213
-0.890147 0.384803 3.709338 226 222 210
-2.358758 0.992374 9.098171 229 225 213
-1.011629 0.444901 4.226175 229 225 213
-1.561950 0.677469 6.280862 236 232 220
-1.482201 0.649729 6.026181 241 237 225
-1.112114 0.507551 4.747140 243 239 227
-1.644553 0.742292 6.805343 242 238 226
-0.888192 0.422471 3.980082 239 235 223
0.218469 1.230709 9.064131 182 178 166
0.239629 1.345573 9.879371 182 178 166
0.233499 0.446492 3.389526 179 175 163
0.330909 0.870067 6.382637 178 174 162
0.534667 1.007121 7.233775 166 162 150
0.487523 0.851669 6.143067 167 163 151
0.286482 0.303209 2.318502 166 162 150
1.009387 2.075438 14.626825 170 166 154
0.754682 1.408164 9.980630 167 163 151
-1.165439 0.471403 4.466889 230 226 214
-3.018347 1.192984 10.862449 226 222 210
-1.594350 0.646501 6.004927 225 221 209
-0.848622 0.358423 3.447601 228 224 212
-3.144401 1.291276 11.648848 227 223 212
-1.256536 0.536073 4.989767 225 221 210
-1.878895 0.801273 7.300954 224 220 208
-3.631324 1.535065 13.716268 228 224 212
-3.538319 1.508497 13.464159 225 221 209
-1.493622 0.658742 6.024730 230 226 214
-1.552857 0.689413 6.283478 235 231 219
-1.955651 0.867685 7.826651 240 236 224
-0.909085 0.426816 3.976501 247 243 231
-2.037797 0.933443 8.351288 243 239 227
-1.356358 0.637552 5.781322 245 241 229
-0.418124 0.221388 2.180268 241 237 225
0.343118 1.790837 12.875278 184 180 168
0.480588 1.504581 10.739155 176 172 160
0.892101 2.084773 14.605569 169 165 153
0.801821 1.770840 12.424671 161 157 145
0.442533 0.742552 5.323802 158 154 142
0.450903 0.743569 5.325447 163 159 147
0.309205 0.347647 2.593654 166 162 150
0.329587 0.387994 2.868054 162 158 146
-2.166249 0.855570 7.786277 227 223 211
-0.492347 0.216174 2.165967 228 224 212
-0.414186 0.187363 1.910906 226 222 210
-2.174605 0.892864 8.055061 228 224 212
-1.128853 0.483611 4.474675 226 222 210
-1.193680 0.514043 4.732357 224 220 208
-3.630999 1.520383 13.447706 222 218 206
-0.459168 0.220206 2.172490 222 218 206
-0.381579 0.191325 1.917316 222 218 206
-0.936644 0.430350 3.971609 224 220 208
-1.901086 0.849484 7.567981 227 223 211
-1.888459 0.851018 7.570463 231 227 215
-0.574077 0.282862 2.690753 239 235 223
-1.658941 0.763981 6.804305 246 242 230
0.337310 2.002631 14.227872 183 179 167
0.317209 1.578780 11.249221 182 178 166
0.346587 1.122632 8.009871 179 175 163
0.270219 0.615323 4.479304 176 172 160
0.347463 0.701330 5.035344 173 169 157
0.813270 1.945542 13.510164 173 169 157
-2.092187 0.839298 7.531406 227 223 211
-0.496526 0.219473 2.165436 228 224 212
-3.641025 1.464814 12.906582 230 226 214
-1.159933 0.487597 4.469158 228 224 212
-3.079151 1.261850 11.123821 227 223 211
-2.877731 1.208828 10.622498 227 223 211
-3.366811 1.420639 12.419571 226 222 210
-1.965913 0.854644 7.556232 225 221 209
-2.576951 1.129132 9.870249 225 221 209
-2.490219 1.100923 9.616840 223 219 207
-0.867689 0.406864 3.715230 222 218 206
-1.694511 0.771378 6.798207 220 216 204
-1.821153 0.833486 7.314231 221 217 205
-1.260388 0.591638 5.260790 225 221 209
-1.047159 0.501302 4.491329 232 228 216
-1.107359 0.532736 4.749954 238 234 222
-0.291898 0.166841 1.664744 241 237 225
-1.681502 0.811708 7.071225 243 239 227
0.187519 0.690095 5.004526 183 179 167
0.248101 1.666193 11.777955 182 178 166
0.269220 1.707509 12.052568 181 177 165
0.299048 1.168642 8.271982 180 176 164
0.484954 1.113735 7.767609 173 169 157
0.263602 0.273098 2.044416 158 154 142
-2.397338 0.972009 8.554387 229 225 213
-2.081250 0.853665 7.534553 226 222 210
-2.578111 1.067608 9.330331 229 225 213
-0.845141 0.376859 3.449661 227 223 211
-2.880105 1.226853 10.623431 227 223 211
-3.132766 1.352904 11.655735 226 222 210
-3.256542 1.416241 12.172390 225 221 209
-3.307433 1.449245 12.432879 225 221 209
-1.093274 0.503460 4.482856 224 220 208
-3.547321 1.576849 13.467694 220 216 204
-1.637475 0.750839 6.539821 218 214 202
-1.140198 0.536947 4.744125 216 212 200
-0.987056 0.477180 4.233244 214 210 198
-2.548601 1.188761 10.147615 216 212 200
-0.295112 0.169378 1.664336 218 214 202
-0.965778 0.479765 4.237427 219 215 203
-1.561005 0.760132 6.554855 229 225 213
-0.286607 0.170411 1.666008 243 239 227
0.460130 1.084128 7.493197 174 170 158
0.540397 1.329016 9.131943 171 167 155
0.388954 0.761966 5.315249 168 164 152
0.710313 1.741556 11.870292 168 164 152
-1.943723 0.804159 7.021531 224 220 208
-3.366380 1.384215 11.881868 231 227 215
-3.646798 1.508651 12.908850 228 224 212
-3.699875 1.541830 13.168943 226 222 210
-2.638811 1.115975 9.590156 225 221 209
-1.368289 0.596688 5.240965 226 222 210
-0.552449 0.259918 2.425551 227 223 211
-1.058930 0.475768 4.219673 226 222 210
-2.937259 1.277849 10.884121 225 221 209
-2.919096 1.280056 10.887692 225 221 209
-2.255952 1.003987 8.583314 223 219 207
-2.312860 1.036700 8.842654 224 220 208
-1.589973 0.728262 6.279494 222 218 206
-3.268772 1.475334 12.442114 219 215 203
-1.149206 0.544055 4.742981 215 211 199
-0.376367 0.202059 1.919113 215 211 199
-0.752875 0.394075 3.468259 216 212 200
0.172273 0.229104 1.756447 180 176 164
0.217724 0.630913 4.470662 180 176 164
0.214142 0.432335 3.117318 179 175 163
0.418817 1.923467 13.167090 176 172 160
0.352571 1.083215 7.472980 174 170 158
-1.869319 0.785291 6.766526 214 210 198
-3.217932 1.342629 11.371497 226 222 210
-3.198918 1.344940 11.375235 225 221 209
-2.582289 1.099330 9.331972 226 222 210
-2.034120 0.885468 7.545810 225 221 209
-1.059879 0.482976 4.220046 227 224 209
-3.665421 1.608794 13.448013 225 222 207
-2.200053 0.985508 8.324873 225 222 207
-0.679993 0.328800 2.941923 224 220 208
-0.746326 0.360808 3.199444 223 219 207
-2.370949 1.084945 9.102959 220 216 204
-1.087768 0.519655 4.485124 219 215 203
-2.830716 1.309549 10.906500 216 212 200
0.321434 1.131658 7.738348 174 170 158
0.469863 2.031197 13.719883 174 170 158
0.392648 1.260517 8.564034 173 169 157
0.485079 1.672432 11.287821 175 171 159
0.319805 0.610573 4.220729 169 165 153
0.406762 0.741346 5.049509 167 163 151
-2.783273 1.172036 9.834880 196 192 180
-1.859488 0.798205 6.769354 220 216 204
-2.449616 1.050552 8.818096 216 212 200
-1.687270 0.738118 6.262021 217 213 201
-0.859106 0.393174 3.448292 218 214 202
-2.848792 1.245089 10.363189 222 218 206
-2.611036 1.152459 9.598146 225 221 209
-1.206940 0.553443 4.732883 225 222 207
-2.070558 0.934586 7.810238 223 220 205
-2.129709 0.967905 8.069204 223 220 205
-2.958986 1.353222 11.153310 223 219 207
-0.741657 0.366939 3.200787 217 213 201
-1.088775 0.527295 4.485519 217 213 201
-0.941105 0.464225 3.973361 214 210 198
-0.921105 0.466656 3.977293 215 211 199
-3.926874 1.664266 13.670777 170 166 154
-1.785340 0.777987 6.514198 209 205 193
-1.774415 0.779315 6.516345 215 211 199
-2.736098 1.194763 9.845452 217 213 201
-1.231836 0.558620 4.728615 223 219 207
-2.304697 1.042452 8.577122 225 221 209
-1.999618 0.915737 7.554586 223 219 207
-1.471514 0.693283 5.764010 222 218 206
-0.604948 0.307223 2.686831 221 217 205
-1.026315 0.501701 4.227763 217 215 202
-0.736989 0.373071 3.202130 214 212 199
-0.661467 0.341302 2.946349 211 209 196
-0.865624 0.439334 3.718098 212 208 196
-0.859383 0.440092 3.719325 212 208 196
-1.954827 0.962128 7.834020 212 208 196
-1.873876 0.819894 6.768315 113 109 97
-1.559629 0.692535 5.747447 207 203 191
-2.077072 0.919362 7.540354 216 212 200
-1.390589 0.630304 5.239356 222 218 206
-1.456240 0.663712 5.497111 224 220 208
-2.927447 1.312665 10.621118 224 220 208
-2.541732 1.152604 9.343638 220 216 204
-1.648086 0.764560 6.271381 220 216 204
-1.637587 0.765835 6.273445 219 215 203
-1.410134 0.669316 5.506176 219 215 203
-1.034357 0.508047 4.226742 218 214 202
-0.433130 0.250014 2.179644 212 208 196
-2.425576 1.249493 9.907799 211 207 195
-1.799188 0.798863 6.513199 68 64 52
-1.485138 0.669722 5.492157 165 161 149
-1.325206 0.605504 4.982208 211 207 195
-2.351524 1.066354 8.570177 220 216 204
-2.263115 1.035271 8.316862 219 215 203
-1.880947 0.872581 7.038516 218 214 202
-1.576264 0.742301 6.015634 217 213 201
-3.677423 1.699930 13.452727 215 211 199
-1.266617 0.612624 4.993726 214 210 198
-3.681687 1.741238 13.722585 217 213 201
-3.587744 1.710828 13.470358 214 210 198
-1.224650 0.659551 5.272673 212 208 196
-2.258235 1.007954 8.048189 53 49 37
-1.789726 0.811293 6.515921 74 70 58
-1.929627 0.878824 7.029875 150 146 134
-2.278881 1.047712 8.314859 202 198 186
-1.513975 0.718005 5.757945 214 210 198
-3.613164 1.730887 13.467129 212 208 196
-2.195807 1.100073 8.601921 211 207 195
-2.112025 1.067989 8.347663 212 208 196
-1.115865 0.597320 4.753295 212 208 196
-0.830684 0.462912 3.726444 213 209 197
-3.404856 1.523116 11.885272 90 86 74
-3.591534 1.628547 12.660861 60 56 44
-0.793769 0.388430 3.192667 119 115 103
-0.788380 0.389085 3.193727 161 157 145
-1.524914 0.726636 5.756555 179 175 163
-1.293967 0.626584 4.989670 193 189 177
-1.358938 0.661394 5.247660 205 201 189
-3.100104 1.474739 11.403660 213 209 197
-3.226068 1.544843 11.920422 213 209 197
-2.773822 1.343567 10.384755 214 210 198
-2.580317 1.281671 9.881272 211 207 195
-1.349287 0.705273 5.520320 210 206 194
-1.478232 0.775015 6.036496 213 209 197
-1.229207 0.599951 4.732265 97 93 81
-1.295087 0.635090 4.990110 118 114 102
-2.828071 1.354848 10.375455 137 133 121
-1.424291 0.705679 5.506302 163 159 147
-2.503264 1.221738 9.356125 186 182 170
-2.631898 1.292397 9.872429 203 199 187
-1.387406 0.710162 5.513553 203 201 188
-1.307342 0.676746 5.258497 205 203 190
-1.721051 0.885343 6.801942 214 212 199
-1.698351 0.888101 6.806405 210 206 194
-1.133879 0.611535 4.751007 212 208 196
-2.315972 1.244499 9.392947 212 208 196
-0.349935 0.191986 1.655794 233 229 217
-3.823944 1.774718 13.430995 219 215 203
-1.836071 0.883084 6.780224 148 144 132
-3.217101 1.543370 11.654489 88 84 72
-2.287543 1.133314 8.587277 109 105 93
-0.901840 0.473596 3.713931 130 126 114
-1.959248 0.998870 7.568498 183 181 168
-1.308519 0.685685 5.258960 195 196 182
-1.652096 0.861856 6.545564 204 205 191
-1.781269 0.933329 7.061829 200 198 185
-1.630247 0.864512 6.549859 205 203 190
-1.273337 0.689960 5.265876 208 206 193
-0.576827 0.338753 2.694508 211 207 195
-0.777326 0.445143 3.467580 212 208 196
-0.491606 0.305525 2.440432 214 208 196
-3.621166 1.690436 12.660038 240 236 224
-3.751304 1.762670 13.176181 233 229 217
-1.698511 0.823471 6.266436 217 213 201
-1.762801 0.859682 6.524661 207 203 191
-1.141934 0.582936 4.479813 146 140 128
-1.829948 0.939572 7.053187 90 88 75
-1.889555 0.976352 7.312332 93 94 80
-1.664482 0.871631 6.543990 113 114 100
-1.653558 0.872958 6.546138 146 147 133
-1.502422 0.803276 6.034123 166 167 153
-1.492349 0.804500 6.036104 186 187 173
-1.482276 0.805724 6.038084 201 199 186
-1.112173 0.630578 4.756527 211 205 193
-0.428718 0.273388 2.182256 217 211 199
-2.803518 1.569677 11.466468 212 208 196
-2.879647 1.357736 10.098514 241 237 225
-3.395625 1.606281 11.893355 245 241 229
-2.240297 1.079719 8.057031 241 237 225
-1.699916 0.834140 6.266988 230 226 214
-2.662415 1.295207 9.599427 220 216 204
-3.814260 1.866656 13.707333 211 207 195
-0.537941 0.308385 2.431971 94 95 81
-3.677187 1.883314 13.734282 73 74 60
-0.807958 0.453428 3.462475 85 87 73
-1.363445 0.741637 5.520446 97 98 84
-1.354223 0.742757 5.522259 108 109 95
-0.998446 0.563672 4.237718 140 141 127
-0.302500 0.203605 1.665567 164 165 151
-1.052721 0.601541 4.497945 184 185 171
-1.823727 1.041415 7.597134 207 205 190
-1.877430 1.079353 7.857473 211 209 196
-2.728695 1.303707 9.587661 239 235 223
-1.417597 0.699673 5.239596 245 241 229
-2.545119 1.236208 9.081890 245 241 229
-3.885855 1.881544 13.695060 236 232 220
-1.615919 0.810283 6.013399 227 223 211
-3.616732 1.779538 12.935176 215 211 199
-3.669215 1.818064 13.195789 211 207 195
-3.625227 1.823409 13.204437 209 205 193
-0.970028 0.529545 3.972933 190 191 177
-3.680244 1.906531 13.735482 152 153 139
-0.459196 0.277297 2.176846 108 110 96
-1.797772 0.967799 7.061371 77 79 65
-1.785997 0.969230 7.063686 78 79 65
-1.484972 0.826197 6.039143 85 87 73
-1.474899 0.827421 6.041123 89 91 77
-0.358779 0.244596 1.925657 180 181 167
-1.348075 0.797929 5.795126 204 202 190
-0.810731 0.504000 3.733320 207 204 195
-1.274243 0.635489 4.726544 235 231 219
-1.113825 0.564297 4.216153 239 235 223
-3.305266 1.612941 11.643289 241 237 225
-1.551954 0.783114 5.755805 241 237 225
-3.641187 1.798835 12.932070 232 228 216
-3.396016 1.692599 12.167377 223 219 207
-3.523941 1.767740 12.684155 215 211 199
-2.913337 1.479196 10.636484 210 204 192
-3.408399 1.736438 12.435906 204 200 188
-2.554473 1.341434 9.623178 207 205 192
-2.395331 1.270087 9.112536 207 205 192
-1.587241 0.869512 6.290796 186 187 173
-0.803700 0.465955 3.464230 145 146 132
-0.797884 0.466661 3.465373 102 104 90
-0.362476 0.247514 1.925187 83 87 72
-1.637845 0.954049 6.822776 94 98 83
-0.757178 0.471608 3.473376 121 122 108
-2.924176 1.704596 11.989175 181 181 173
-1.114774 0.571505 4.216526 235 231 219
-1.335287 0.682056 4.986168 237 233 221
-3.268988 1.637421 11.651954 240 236 224
-1.235586 0.648389 4.734771 234 230 218
-2.694492 1.386756 9.867913 215 209 197
-2.384777 1.241262 8.844810 211 207 195
-2.336636 1.292895 9.125273 198 199 185
-0.757956 0.477518 3.473682 83 84 70
-2.728606 1.611525 11.216197 97 97 89
-3.119017 1.537050 10.869877 233 229 217
-2.948152 1.465369 10.361405 231 227 215
-1.336407 0.690561 4.986608 233 229 217
-0.799540 0.432246 3.194934 241 237 225
-2.564709 1.327076 9.352663 232 228 216
-0.482795 0.285848 2.173079 218 214 202
-2.240010 1.181645 8.332372 213 209 197
-2.226105 1.183335 8.335106 211 207 195
-2.212201 1.185025 8.337839 208 204 192
-1.101855 0.626620 4.490657 209 206 191
-0.892703 0.559592 3.989713 74 76 62
-1.670662 1.389503 9.257400 226 223 208
-2.239905 1.967442 12.939931 218 215 200
-3.044614 1.518182 10.614872 232 228 216
-1.261545 0.661639 4.730921 233 229 217
-2.084724 1.074886 7.550802 236 232 220
-2.748275 1.414208 9.859936 241 237 225
-3.680989 1.907469 13.200414 243 239 227
-2.034215 1.081024 7.560732 223 219 207
-2.168443 1.158037 8.076474 214 210 198
-0.840926 0.479443 3.458288 212 208 196
-0.540693 0.329280 2.433052 208 204 192
-2.114528 1.164589 8.087073 205 202 187
-1.031562 0.596263 4.234004 205 202 187
-0.599230 0.368829 2.692609 207 204 189
-1.228720 0.712290 5.008439 212 206 190
-0.553850 0.374344 2.701531 91 91 79
-0.425551 0.343273 2.455689 207 204 197
-0.654838 0.502058 3.494872 206 203 196
-0.973732 0.789940 5.329635 224 221 212
-0.595637 0.555914 3.777576 226 223 208
-1.066527 0.965311 6.395652 225 222 207
-2.570460 1.311506 9.082896 232 228 216
-0.952209 0.519026 3.707967 234 230 218
-2.600102 1.355005 9.348167 239 235 223
-2.584494 1.356902 9.351236 244 240 228
-3.312251 1.739479 11.919148 243 239 227
-2.922832 1.551295 10.640213 239 235 223
-2.023277 1.095391 7.563879 220 216 204
-1.937591 1.058703 7.309626 214 210 198
-1.416956 0.792260 5.514290 208 204 192
-0.757866 0.448440 3.203977 207 203 191
-1.972768 1.101529 7.573809 204 201 186
-1.309140 0.758261 5.264388 206 203 186
-1.159336 0.682262 4.751641 207 204 187
-1.058758 0.647383 4.500316 212 209 192
-0.367482 0.260372 1.925232 213 210 195
-0.354439 0.261957 1.927796 194 195 181
-2.404835 1.472939 9.928754 173 173 163
-2.100656 1.415700 9.446358 145 147 136
-0.434326 0.346453 2.454288 172 174 163
-2.092110 1.510943 9.990236 87 87 77
-1.550218 1.247083 8.199079 255 251 240
-1.469344 1.256911 8.214979 227 224 209
-0.786241 0.774704 5.096090 217 214 199
-2.777271 1.492214 10.127964 248 244 232
-2.686844 1.455662 9.874610 235 231 219
-1.354295 0.761855 5.256204 223 219 207
-1.758941 0.997928 6.803445 207 204 189
-1.676178 0.960445 6.548584 206 203 188
-1.829409 1.084448 7.331856 204 203 183
-0.990906 0.615850 4.243116 205 204 186
-0.834870 0.634812 4.273793 90 93 82
-2.169412 1.566084 10.247469 87 87 77
-2.036098 1.487202 9.731413 87 87 77
-2.251220 1.651225 10.773650 84 81 72
-2.405572 1.775092 11.556702 80 77 68
-0.904538 0.768970 5.073493 233 229 218
-2.512499 2.047346 13.162475 244 241 226
-1.863884 1.555672 10.036403 237 234 219
-1.419746 1.229315 7.954661 226 223 208
-0.931350 0.908336 5.881619 221 218 203
-2.909843 1.589499 10.645565 245 241 229
-2.599414 1.435300 9.621931 235 231 219
-1.710413 0.967564 6.542715 219 215 203
-1.699489 0.968891 6.544863 214 210 198
-3.054585 1.715852 11.430607 211 208 193
-2.749691 1.560981 10.405884 206 203 188
-1.311495 0.776137 5.265312 208 205 188
-3.329493 1.922349 12.732390 208 205 188
-0.355312 0.268584 1.928139 203 201 186
-0.872813 0.685505 4.538059 81 83 72
-2.810057 2.081435 13.376843 79 79 69
-0.922398 0.775441 5.070642 116 116 104
-2.147979 1.730065 11.066512 211 207 196
-1.861876 1.524929 9.766930 239 235 223
-1.238356 1.072911 6.906687 239 235 224
-1.370033 1.200852 7.694298 227 223 211
-1.504219 1.376469 8.752581 216 212 200
-2.370175 2.134892 13.463323 218 214 202
-1.749548 1.634542 10.331346 220 216 204
-1.900166 0.762101 5.421473 233 229 217
-1.985463 0.800156 5.675904 233 229 217
-0.752617 0.320510 2.392685 230 226 214
-0.748505 0.321010 2.393494 229 225 213
-1.024115 0.432778 3.152908 229 225 213
-1.475282 0.620053 4.420207 228 224 212
-2.663288 1.105148 7.712241 229 225 213
-1.002557 0.435398 3.157146 229 225 213
-1.999398 0.846883 5.944364 229 225 213
-1.989326 0.848107 5.946344 227 223 211
-2.340294 0.999138 6.962142 227 223 211
-2.328518 1.000569 6.964457 226 222 210
-1.154427 0.513783 3.669688 225 221 209
-2.660899 1.153859 7.983910 226 222 210
-2.293191 1.004862 6.971403 228 224 212
-1.400099 0.629189 4.434988 226 222 210
-1.304875 0.592341 4.182509 226 222 210
-1.472343 0.668831 4.691984 229 225 213
-2.234312 1.012018 6.982978 228 224 212
-0.929751 0.541087 3.713859 242 238 226
-2.249315 1.252297 8.336027 253 249 237
-2.528330 1.412072 9.365971 247 243 231
-1.493462 0.859946 5.772631 229 225 213
-3.727550 2.089487 13.740598 220 216 204
-1.833932 1.060674 7.061693 216 213 198
-2.680480 1.538844 10.149657 212 209 194
-2.521393 1.461336 9.638534 209 206 189
-0.785887 0.510149 3.470943 205 202 183
-1.054258 0.671218 4.502980 208 205 186
-0.943156 0.636299 4.253623 209 206 191
-2.725130 1.920783 12.310476 72 77 57
-1.894916 1.392207 8.948100 75 77 63
-1.791623 1.404759 8.968408 87 89 76
-0.415602 0.409886 2.730142 216 212 201
-0.783600 0.704109 4.556191 232 228 217
-2.579020 2.180642 13.695199 235 231 220
-1.062625 0.960724 6.128532 223 219 208
-0.864098 0.839589 5.353964 220 216 204
-1.655587 1.566553 9.808751 220 216 204
-1.901401 0.771472 5.421958 229 225 213
-1.135580 0.473657 3.402652 229 225 213
-0.659018 0.287270 2.140178 228 224 212
-2.342354 0.962186 6.691433 226 222 210
-1.024836 0.438255 3.153191 227 223 211
-1.576678 0.664354 4.672099 228 224 212
-1.661180 0.702945 4.926719 229 225 213
-2.480994 1.043059 7.206643 229 225 213
-2.560387 1.082270 7.462267 228 224 212
-0.906720 0.403749 2.905180 229 225 213
-1.990674 0.858344 5.946873 228 224 212
-1.348379 0.594377 4.174516 227 223 211
-1.423660 0.634089 4.430949 228 224 212
-2.471996 1.093012 7.479645 226 222 210
-1.218061 0.561354 3.928903 227 223 211
-2.084765 0.944630 6.470842 228 224 212
-1.726196 0.792764 5.456403 230 226 214
-2.495344 1.139035 7.746288 229 225 213
-3.303020 1.822645 11.927230 242 238 226
-0.924345 0.548187 3.715414 250 246 234
-2.223366 1.269807 8.342225 243 239 227
-2.499204 1.431727 9.372928 232 228 216
-0.827372 0.511112 3.463246 218 215 200
-0.821556 0.511819 3.464389 213 210 195
-1.242691 0.753801 5.008994 207 204 187
-1.283573 0.846554 5.543422 204 201 184
-1.178044 1.054819 6.649102 233 229 218
-2.537180 2.208875 13.705193 225 221 209
-2.464039 2.168903 13.448339 227 223 211
-1.893413 0.781964 5.424256 228 224 212
-1.318955 0.555976 3.909593 228 224 212
-2.156312 0.897915 6.186370 227 223 211
-1.484813 0.634420 4.419519 226 222 210
-1.662301 0.711450 4.927159 226 222 210
-2.482627 1.055458 7.207284 226 222 210
-2.103819 0.904294 6.196690 227 223 211
-1.089836 0.485220 3.412104 228 224 212
-1.447221 0.638988 4.426910 228 224 212
-1.439703 0.639902 4.428388 226 222 210
-1.252287 0.564078 3.922700 226 222 210
-1.245621 0.564888 3.924011 228 224 212
-2.486313 1.104310 7.477826 229 225 213
-0.522917 0.258316 1.895960 227 223 211
-2.196321 0.991652 6.721038 227 223 211
-1.658053 0.761266 5.199261 228 224 212
-2.086227 0.955731 6.471416 228 224 212
-1.031683 0.492287 3.423537 230 226 214
-1.112411 0.531777 3.678933 230 226 214
-2.769425 1.562903 10.134834 236 232 220
-1.138972 0.676448 4.487511 245 241 229
-3.537756 2.011829 12.967716 252 248 236
-0.761473 0.475825 3.205393 245 241 229
-0.822335 0.517728 3.464695 216 213 198
-2.312039 1.371988 8.868422 209 206 189
-0.292498 0.237018 1.669993 204 201 184
-1.669041 1.351528 8.452301 208 206 194
-2.232954 1.973196 12.139171 232 228 217
-1.349849 1.242419 7.701254 227 223 211
-1.387574 1.287134 7.965104 221 217 205
-1.691945 1.595244 9.804132 216 212 200
-2.357012 2.204618 13.471115 214 210 198
-0.572263 0.255686 1.886515 228 224 212
-1.042447 0.447244 3.150579 228 224 212
-0.660005 0.294763 2.140566 230 226 214
-0.656319 0.295211 2.141290 226 222 210
-0.652632 0.295659 2.142015 225 221 209
-1.485819 0.642060 4.419914 223 219 207
-2.403902 1.027884 6.952424 223 219 207
-1.010110 0.451174 3.156937 224 220 208
-1.004721 0.451829 3.157996 226 222 210
-1.090614 0.491130 3.412410 228 224 212
-1.902513 0.840119 5.694495 225 221 209
-0.898121 0.415044 2.907653 225 221 209
-0.893157 0.415647 2.908629 228 224 212
-0.888194 0.416250 2.909605 228 224 212
-2.398849 1.078238 7.224717 229 225 213
-2.120462 0.962850 6.465547 229 225 213
-0.785000 0.379052 2.658592 228 224 212
-1.395599 0.653024 4.437652 228 224 212
-2.000238 0.927721 6.217882 229 225 213
-0.858411 0.419870 2.915460 228 224 212
-1.113246 0.538119 3.679261 227 223 211
-2.417307 1.374431 8.848891 234 230 218
-1.073669 0.642407 4.229642 233 229 217
-1.066577 0.643269 4.231037 240 236 224
-0.548658 0.358034 2.433757 249 245 233
-0.762194 0.481302 3.205677 251 247 235
-2.185374 1.303138 8.351888 224 221 206
-1.173659 0.729735 4.752585 212 209 192
-1.165715 0.730700 4.754147 210 207 190
-0.515760 0.362032 2.440224 208 205 190
-0.295713 0.239555 1.669584 203 199 187
-0.495199 0.364530 2.444267 202 199 182
-1.219452 0.823649 5.286183 202 199 180
-1.122701 0.835406 5.305204 208 202 186
-2.872025 2.115001 13.100299 224 221 202
-1.515694 1.235302 7.669645 223 219 208
-2.342240 1.880947 11.576652 212 208 196
-0.190820 0.252302 1.690206 230 226 215
-2.106593 1.959323 11.894280 219 215 203
-2.332817 2.180528 13.206307 219 215 203
-2.311249 2.183149 13.210547 216 212 200
-1.619588 0.683746 4.665543 229 225 213
-0.660499 0.298509 2.140759 229 225 213
-1.877439 0.802947 5.428851 225 221 209
-1.386690 0.611691 4.168662 224 220 208
-2.106629 0.925632 6.197794 225 221 209
-1.274072 0.575198 3.919469 223 219 207
-1.358319 0.615138 4.174240 225 221 209
-1.170250 0.537636 3.668546 228 224 212
-1.344134 0.616862 4.177029 230 226 214
