ply
format ascii 1.0
element vertex 1212
property float x
property float y
property float z
property uchar red
property uchar green
property uchar blue
end_header
-0.603730 -0.076038 1.882246 145 139 43
-1.237166 0.629462 3.921987 147 141 45
-1.184078 0.601915 3.665700 147 141 45
-1.125141 0.561127 3.409684 147 141 45
-1.061364 0.509385 3.153892 147 141 45
-2.185962 0.832091 9.311710 147 141 45
-2.131695 0.801875 9.055477 146 140 44
-1.370804 0.561480 4.950783 146 140 44
-1.319738 0.538509 4.694402 146 140 44
-1.125365 0.469016 3.668421 146 140 44
-0.884979 0.387991 2.385825 146 140 44
-1.158269 0.450877 3.925643 146 140 44
-0.925923 0.388050 2.642674 146 140 44
-1.197023 0.445979 4.182595 146 140 44
-0.703510 -0.022770 2.394235 146 140 44
-0.567819 0.040564 1.365534 146 140 44
-1.328511 -0.367823 7.281470 146 140 44
-2.015492 -0.757819 12.683327 146 140 44
-0.985209 -0.218707 4.709906 146 140 44
-0.916322 -0.189397 4.195604 145 139 43
-1.905602 -1.006560 12.688420 145 139 43
-1.834862 -0.981444 12.174204 146 140 44
-0.934046 -0.334516 4.712278 146 140 44
-1.427246 0.714163 4.946431 146 140 44
-1.166962 0.582982 3.665113 147 141 45
-1.746961 0.796677 6.742346 146 140 44
-2.348935 0.968516 10.077237 146 140 44
-1.558145 0.644074 5.975069 147 141 45
-1.787970 0.706310 7.257798 146 140 44
-0.619360 -0.015358 1.879759 146 140 44
-1.638994 -0.638456 10.110140 145 139 43
-0.967589 -0.326284 4.967734 145 139 43
-1.267611 -0.563134 7.540591 146 140 44
-1.349275 0.653174 4.689703 146 140 44
-1.476191 0.668733 5.459636 146 140 44
-1.127013 0.512367 3.665585 147 141 45
-1.914965 0.756183 8.025349 146 140 44
-1.027020 -0.257405 5.221848 146 140 44
-1.590649 -0.611926 9.850615 145 139 43
-1.441605 -0.677574 9.081708 145 139 43
-0.984295 -0.354115 5.223829 146 140 44
-1.248333 0.627691 4.175649 147 141 45
-1.914605 0.882121 7.764241 146 140 44
-1.135991 0.552501 3.663789 146 140 44
-1.038718 0.511420 3.151229 147 141 45
-1.073350 0.500261 3.408158 147 141 45
-1.299477 -0.420689 7.534216 146 140 44
-0.701431 -0.072940 2.649794 145 139 43
-0.680726 -0.119805 2.650754 145 139 43
-1.271247 -0.574139 7.794058 146 140 44
-1.236646 0.623095 4.174668 146 140 44
-0.949242 0.503707 2.637214 146 140 44
-1.088051 0.552326 3.406168 147 141 45
-0.897102 0.474213 2.381168 146 140 44
-1.456229 0.677493 5.456803 147 141 45
-1.112351 0.518802 3.663504 147 141 45
-0.825375 0.400384 2.126030 146 140 44
-1.047837 0.461300 3.408032 146 140 44
-0.949683 0.416177 2.895656 146 140 44
-0.811869 0.369811 2.126656 146 140 44
-0.982420 0.401753 3.152601 146 140 44
-1.162622 -0.341200 6.504261 146 140 44
-0.541650 0.023742 1.363793 145 139 43
-1.793831 -0.948553 12.419641 145 139 43
-1.228582 -0.546005 7.535053 146 140 44
-1.037270 0.543672 3.148822 147 141 45
-1.150595 0.537675 3.918743 147 141 45
-1.737446 0.728484 7.250629 146 140 44
-1.983360 0.760097 8.789578 145 139 43
-0.907193 0.424246 2.638068 145 139 43
-0.860209 0.405401 2.381855 145 139 43
-0.943487 0.418896 2.894777 145 139 43
-1.097689 0.525237 3.661424 147 141 45
-0.959344 0.471530 2.892876 146 140 44
-0.815257 0.404825 2.124594 145 139 43
-0.835406 -0.241411 4.190219 145 139 43
-0.803287 -0.227632 3.933388 146 140 44
-1.045541 0.512466 3.404212 147 141 45
-1.801482 0.770786 7.759403 146 140 44
-1.298030 0.571238 4.942002 146 140 44
-0.854173 0.421128 2.380087 145 139 43
-0.629151 -0.088216 2.390516 145 139 43
-1.076989 -0.441840 6.501738 146 140 44
-1.971044 1.021905 8.265379 147 141 45
-1.144618 0.586649 3.914666 147 141 45
-1.083027 0.531671 3.659343 147 141 45
-1.035495 0.508515 3.403369 146 140 44
-1.682693 0.706951 7.246034 146 140 44
-0.979525 0.466259 3.147786 145 139 43
-1.629228 -0.849451 11.637526 145 139 43
-1.509694 -0.782282 10.610357 146 140 44
-1.585549 0.854843 6.215734 149 140 47
-1.529575 0.811554 5.960222 149 140 47
-0.968324 0.542081 2.888961 149 140 47
-1.140339 0.597797 3.913413 148 139 46
-0.949028 0.498405 2.889856 148 139 46
-1.034730 0.525570 3.402096 149 140 47
-0.899455 0.469606 2.634047 148 139 46
-1.862490 0.814416 8.267747 148 139 46
-1.025449 0.504564 3.402526 148 139 46
-1.065911 0.512739 3.658757 148 139 46
-0.975876 0.475765 3.146717 148 139 46
-0.878751 0.422741 2.635007 147 138 45
-1.036555 0.446290 3.660117 147 138 45
-1.444847 -0.714810 10.093846 146 139 48
-1.546909 -0.817433 11.121540 146 139 48
-1.021951 0.597822 3.143345 149 140 47
-1.747352 0.921579 7.238282 148 139 46
-1.605128 0.846814 6.470769 148 139 46
-2.339327 1.108097 10.823333 146 137 44
-1.033964 0.542625 3.400823 148 139 46
-0.854796 0.466625 2.376987 148 139 46
-0.896227 0.478017 2.633102 148 139 46
-1.286775 0.620541 4.937315 148 139 46
-1.523292 0.661575 6.474562 146 137 44
-0.792768 0.408611 2.121827 146 137 44
-1.190826 0.672380 4.166135 148 139 46
-0.961447 0.559998 2.886948 148 139 46
-0.868715 0.512826 2.375319 148 139 46
-0.821476 0.487265 2.119544 148 139 46
-1.667590 0.856534 6.981637 148 139 46
-0.903350 0.509860 2.631677 147 138 45
-1.253926 0.652478 4.679137 147 138 45
-1.337944 0.679926 5.191170 148 139 46
-0.887822 0.474711 2.632397 148 139 46
-0.920099 0.466407 2.888864 147 138 45
-2.233633 0.917313 10.824856 146 137 44
-1.438051 -0.720781 10.345802 146 139 49
-1.323902 -0.653699 9.319238 146 139 49
-1.542306 0.847087 6.211461 147 138 45
-1.086322 0.618374 3.653671 147 138 45
-1.349705 0.732495 5.188818 147 138 45
-0.991254 0.563868 3.142293 147 138 45
-0.900122 0.518271 2.630732 146 137 44
-0.941469 0.531520 2.886708 145 136 43
-1.945351 0.955971 8.771704 147 138 45
-0.967855 0.510903 3.143377 148 139 46
-1.547667 0.698537 6.726997 147 138 45
-0.995312 0.492712 3.399997 146 137 44
-1.664892 0.916649 6.977150 148 139 46
-1.200382 0.658404 4.420468 146 137 44
-1.370841 0.726970 5.443852 146 137 44
-0.975906 0.546891 3.141766 147 138 45
-1.519495 0.746175 6.468246 148 139 46
-0.871013 0.468101 2.630986 147 138 45
-0.784343 0.430559 2.119361 147 138 45
-0.779841 0.420368 2.119569 146 137 44
-0.736055 0.400575 1.863778 146 137 44
-0.987094 -0.379611 6.235100 145 138 48
-0.852800 -0.286996 4.952219 146 139 49
-1.078184 0.639575 3.651288 148 139 46
-2.483576 1.315255 11.834145 147 138 45
-0.888489 0.523376 2.629081 147 138 45
-1.015435 0.575836 3.396447 146 137 44
-1.055351 0.587892 3.652346 146 137 44
-0.795042 0.468449 2.117912 146 137 44
-0.790540 0.458258 2.118121 146 137 44
-0.743870 0.430915 1.862534 146 137 44
-0.739705 0.421486 1.862727 146 137 44
-0.896001 0.462085 2.886483 145 136 43
-0.725126 0.388487 1.863403 146 137 44
-0.693723 -0.152369 3.411357 145 138 48
-1.149468 -0.530101 8.029730 146 139 49
-1.421336 0.817938 5.695432 148 139 46
-0.893024 0.549362 2.627776 147 138 45
-1.011576 0.585889 3.395317 147 138 45
-0.920127 0.533437 2.884198 146 137 44
-1.553160 0.729963 6.977715 146 137 44
-1.424869 0.671389 6.210626 145 136 43
-0.962082 0.473858 3.397611 146 137 44
-0.964861 -0.369853 6.231945 145 138 48
-0.934802 -0.360619 5.975660 146 139 49
-0.789207 -0.381086 4.951694 146 139 49
-1.547108 -1.215554 13.419958 146 139 49
-0.460082 -0.044252 1.359449 146 139 49
-0.672157 -0.336942 3.926405 148 139 46
-1.063523 0.646010 3.649208 148 139 46
-0.798430 0.503463 2.115851 147 138 45
-0.916689 0.542395 2.883191 146 137 44
-0.866503 0.505049 2.627910 146 137 44
-0.822168 0.480945 2.372358 145 136 43
-0.929860 0.495960 3.140188 146 137 44
-0.845799 0.458185 2.628870 145 136 43
-0.995024 0.490961 3.652383 146 137 44
-1.003548 -0.404739 6.743274 145 138 48
-0.825128 -0.274851 4.948293 146 139 49
-0.511660 -0.069400 1.871534 146 139 49
-0.741756 -0.311068 4.436942 145 138 48
-0.599692 -0.175135 2.897883 145 138 48
-0.528293 -0.108001 2.128371 145 138 48
-0.753167 -0.361489 4.694021 145 138 48
-1.425552 -1.127013 12.391075 145 138 48
-0.857173 -0.507314 5.977236 145 138 48
-0.852396 -0.518129 5.977458 145 138 48
-0.517037 -0.133478 2.128892 145 138 48
-0.449176 -0.058337 1.359216 145 138 47
-0.577640 -0.225050 2.898905 145 138 47
-1.271457 0.760354 4.925871 147 138 45
-0.788869 0.495492 2.115341 146 137 46
-0.955461 0.571673 3.137764 146 137 44
-0.784366 0.485301 2.115550 144 135 42
-0.733993 0.446506 1.860349 145 136 43
-0.811891 0.472378 2.371810 146 137 44
-0.721497 0.418221 1.860928 146 137 44
-1.483014 0.712634 6.718818 145 136 43
-0.792534 0.428563 2.372708 145 136 43
-0.748348 0.403773 2.117219 146 137 44
-0.574771 -0.064350 2.382800 144 137 47
-0.888970 -0.331096 5.716206 146 139 49
-0.717647 -0.267531 4.178930 146 139 49
-0.483972 -0.044198 1.614400 146 139 49
-1.258592 -0.848524 10.334722 145 138 48
-0.661510 -0.244148 3.666460 144 137 47
-1.481340 -1.171818 13.157294 144 137 47
-0.740386 -0.366515 4.692948 144 137 47
-0.614092 -0.276253 3.411122 143 136 45
-0.833069 0.535010 2.369805 146 137 46
-0.741808 0.476846 1.859105 146 136 47
-0.987626 0.588041 3.392501 145 136 45
-1.026028 0.600762 3.648186 145 136 45
-1.184138 0.661835 4.670717 145 136 45
-0.723064 0.434418 1.859974 146 137 46
-0.799194 0.458334 2.371375 146 137 46
-0.754544 0.431471 2.115980 145 136 45
-2.154475 0.928933 11.319827 145 136 45
-0.782257 0.419996 2.372160 146 137 46
-0.810785 -0.257465 4.945485 144 137 49
-0.926564 -0.366412 6.227443 146 139 51
-1.498509 -0.926884 12.637552 146 139 51
-0.673750 -0.196631 3.664513 146 139 51
-0.577950 -0.116662 2.639094 146 139 51
-1.439081 -0.987197 12.382842 146 139 49
-1.135914 -0.708781 9.049852 146 139 49
-0.854809 -0.454630 5.973303 144 137 47
-1.071268 -0.706701 8.537918 144 137 47
-0.976985 -0.623301 7.512429 144 137 47
-0.818688 -0.462186 5.717513 144 137 47
-1.354539 -1.104357 12.129295 143 136 48
-0.530620 -0.149593 2.383823 144 137 49
-1.053607 -0.820881 8.796202 144 137 47
-0.984143 -0.755506 8.027027 144 137 47
-1.796563 1.047455 8.244176 143 136 46
-0.822792 0.526442 2.369258 142 135 45
-1.191036 0.701351 4.668732 143 136 46
-0.927689 0.544339 3.136577 142 135 45
-0.718383 0.436472 1.859310 142 135 45
-0.701722 0.398758 1.860082 144 137 47
-0.754028 -0.214649 4.431592 144 137 49
-0.703064 -0.183646 3.919167 145 138 50
-1.566532 -0.936834 13.402706 145 138 50
-1.454835 -0.896942 12.378309 145 138 50
-0.594889 -0.135781 2.894607 144 137 49
-0.519868 -0.086053 2.125904 145 138 50
-0.447879 -0.029461 1.357060 145 138 50
-0.618748 -0.228139 3.408288 145 138 50
-0.465796 -0.062086 1.613623 145 138 50
-0.633801 -0.267246 3.664984 143 136 48
-0.585471 -0.230281 3.152437 144 137 47
-0.997236 -0.761846 8.281222 145 138 48
-0.517923 -0.163636 2.383388 146 139 49
-1.017890 0.621963 3.645803 143 136 46
-1.096442 0.655452 4.156807 142 135 45
-0.961348 0.566136 3.391101 142 135 45
-2.125414 0.964159 11.314138 144 137 47
-0.658661 0.386096 1.603875 144 137 47
-0.651004 0.368764 1.604230 144 137 47
-0.979441 -0.403112 6.992773 144 137 49
-0.904331 -0.356654 6.224288 145 138 50
-0.704180 -0.232445 4.174987 145 138 50
-0.722958 -0.262096 4.431439 144 137 49
-0.561141 -0.123273 2.637683 143 136 48
-1.433431 -1.035110 12.890142 143 136 48
-0.512558 -0.088928 2.125290 143 136 48
-0.467237 -0.047199 1.612747 143 136 48
-0.442210 -0.031690 1.356584 143 136 48
-1.231446 -0.987207 11.098248 143 136 46
-0.995678 -0.727145 8.278632 143 136 46
-0.784141 -0.484393 5.715214 143 136 46
-0.433481 -0.051449 1.356989 145 138 48
-0.754735 -0.478798 5.459255 146 139 49
-0.719435 0.464152 1.857499 143 136 46
-0.837421 0.517813 2.623784 143 136 46
-1.110046 0.636968 4.411905 143 136 46
-0.748371 0.458514 2.113409 143 136 46
-0.863661 0.506075 2.879818 143 136 46
-0.654359 0.387984 1.603264 143 136 46
-1.976596 0.891212 10.545765 143 136 46
-0.725859 0.407559 2.114452 143 136 46
-0.599038 -0.092907 2.892083 144 137 49
-0.756168 -0.235178 4.685557 145 138 50
-1.392094 -0.858632 12.116360 145 138 50
-1.494109 -0.983389 13.397886 145 138 50
-0.626497 -0.173022 3.405312 143 136 48
-0.623403 -0.180024 3.405455 143 136 48
-0.641972 -0.209128 3.661846 143 136 48
-0.581098 -0.204648 3.150165 143 136 48
-0.660104 -0.310353 4.175507 142 135 47
-0.940905 -0.670632 7.764006 142 135 47
-0.854364 -0.581981 6.739013 144 137 49
-0.809127 -0.542110 6.226608 145 138 50
-0.784371 -0.527010 5.970504 146 139 49
-0.547581 -0.052417 2.378942 144 137 49
-0.612549 -0.115694 3.147470 144 137 49
-0.565036 -0.083019 2.635313 144 137 49
-1.469593 -0.910083 13.137755 144 137 49
-1.328356 -0.809110 11.601223 144 137 49
-1.232718 -0.745145 10.576937 144 137 49
-0.468204 -0.021758 1.611082 143 136 48
-0.712328 -0.380618 4.943103 142 135 47
-0.847774 -0.564811 6.737083 143 136 48
-0.526216 -0.170890 2.637112 144 137 49
-0.464831 -0.099502 1.868418 145 138 50
-0.423888 -0.051956 1.355956 146 139 49
-1.387729 -0.761368 12.109099 144 137 49
-1.202238 -0.628528 10.060829 143 136 48
-1.395603 -0.881720 12.622951 143 136 48
-1.172345 -0.696190 10.062214 143 136 48
-0.841303 -0.409195 6.220931 143 136 48
-0.982689 -0.572779 8.014137 143 136 48
-0.872883 -0.475889 6.733684 143 136 48
-0.847032 -0.465315 6.477774 143 136 48
-0.801118 -0.431066 5.965685 143 136 48
-0.857033 -0.511765 6.734419 143 136 48
-0.831687 -0.500048 6.478485 143 136 48
-0.846466 -0.535683 6.734909 143 136 48
-0.821458 -0.523203 6.478959 143 136 48
-0.796786 -0.509960 6.222994 143 136 48
-0.501010 -0.143136 2.380077 144 137 49
-0.690792 -0.404439 4.942365 145 138 50
-0.953412 -0.777224 8.529711 145 138 48
-0.827735 0.543046 2.620948 143 136 46
-0.785923 0.516468 2.365849 143 136 46
-0.667948 -0.158963 3.913539 144 137 49
-0.512581 -0.034186 2.121480 143 136 48
-0.866225 -0.390806 6.474721 143 136 48
-0.840079 -0.381923 6.218895 143 136 48
-0.835132 -0.393120 6.219125 144 137 49
-0.788797 -0.361871 5.707198 144 137 49
-0.825240 -0.415512 6.219583 144 137 49
-0.840651 -0.448693 6.475906 144 137 49
-0.795158 -0.415538 5.963940 144 137 49
-0.770359 -0.403605 5.708052 144 137 49
-0.785602 -0.437168 5.964383 144 137 49
-0.756531 -0.434906 5.708693 144 137 49
-0.771269 -0.469612 5.965047 144 137 49
-0.766491 -0.480427 5.965269 144 137 49
-0.436628 -0.069977 1.610926 144 137 49
-1.218985 -1.157815 12.370225 144 137 47
-0.550175 -0.069502 2.632717 143 136 48
-0.843801 -0.343456 6.216630 143 136 48
-0.771445 -0.306112 5.449086 143 136 48
-0.787656 -0.336457 5.705301 144 137 49
-0.783047 -0.346891 5.705514 145 138 50
-0.819069 -0.399437 6.217777 145 138 50
-0.854418 -0.453508 6.730070 145 138 50
-0.789198 -0.400010 5.962195 145 138 50
-0.705178 -0.322025 4.938226 145 138 50
-0.540179 -0.226212 3.147112 144 137 47
-1.681016 2.111153 4.877373 152 146 50
-2.089492 2.630911 6.652713 152 146 50
-3.144334 3.977565 11.217665 152 146 50
-3.076998 3.882981 10.964461 152 146 50
-1.656392 2.055415 4.878514 152 146 50
-2.408886 3.006865 8.175857 152 146 50
-1.573926 1.926584 4.626011 152 146 50
-2.995529 3.698575 10.968237 152 146 50
-2.930214 3.608567 10.714940 152 146 50
-2.865236 3.519321 10.461627 152 146 50
-2.686933 3.289229 9.700917 152 146 50
-2.098751 2.683957 6.650048 153 147 51
-1.854856 2.359137 5.636339 153 147 51
-3.158907 4.061054 11.213472 153 147 51
-3.091275 3.964779 10.960353 153 147 51
-1.604437 2.019550 4.622932 153 147 51
-1.836418 2.317403 5.637194 153 147 51
-1.714187 2.154351 5.130352 153 147 51
-2.413622 3.055812 8.172975 153 147 51
-2.875119 3.645937 10.201612 153 147 51
-2.976110 3.760911 10.709437 153 147 51
-1.634856 2.031594 4.877776 153 147 51
-1.688552 2.096325 5.131540 153 147 51
-1.622544 2.003724 4.878346 153 147 51
-3.222692 4.035001 11.979275 153 147 51
-1.500083 1.840153 4.371516 153 147 51
-3.034177 3.778725 11.219253 153 147 51
-2.912283 3.616436 10.712396 153 147 51
-3.017547 3.741081 11.220023 153 147 51
-1.993087 2.444783 6.654946 153 147 51
-1.612304 2.030400 4.875348 153 147 51
-1.608200 2.021110 4.875539 153 147 51
-1.660802 2.085412 5.129211 152 146 50
-2.391518 3.027467 8.424784 152 146 50
-3.456069 4.396578 13.241549 153 147 51
-2.142213 2.682217 7.411896 152 146 50
-1.607185 2.043738 4.873849 153 147 51
-1.655472 2.099297 5.127651 152 146 50
-3.397350 4.376097 12.984143 152 146 50
-3.072452 3.909389 11.719004 152 146 50
-1.880232 2.423122 6.139299 153 147 51
-1.521828 1.928177 4.620101 153 147 51
-1.845607 2.344749 6.140904 152 146 50
-1.289595 1.613384 3.606992 152 146 50
-2.598098 3.406034 9.430596 153 147 51
-1.285526 1.623985 3.605800 153 147 51
-1.501176 1.905334 4.619393 153 147 51
-0.732791 0.631330 2.351933 55 60 53
-0.624302 0.540849 1.589270 50 55 48
-2.221708 1.778630 13.286494 58 62 47
-0.787301 0.651325 2.861200 167 168 150
-1.909638 1.485815 11.253782 181 177 139
-1.901323 1.466993 11.254167 168 163 108
-0.573233 0.476949 1.335740 151 143 80
-0.706175 0.571085 2.353167 152 142 71
-1.444811 1.902997 4.108689 153 147 51
-2.353926 3.150047 8.159765 153 147 51
-1.721994 2.277047 5.374971 153 147 51
-3.362077 4.519923 12.717902 153 147 51
-1.635210 2.131282 5.123167 153 147 51
-2.574924 3.396920 9.428651 152 146 50
-2.765798 3.626280 10.443107 153 147 51
-2.107046 1.780468 12.264417 56 59 52
-1.922326 1.615710 10.993850 52 55 46
-1.844223 1.540268 10.485819 51 54 45
-0.616171 0.534071 1.588837 52 54 43
-0.717674 0.611809 2.351610 49 53 38
-0.646647 0.552381 1.843251 56 58 45
-0.642481 0.542952 1.843444 166 167 151
-1.640087 1.280888 9.471977 173 169 124
-0.767324 0.622847 2.860960 161 155 105
-0.597029 0.490741 1.589725 155 149 99
-0.562327 0.462864 1.335507 155 151 104
-0.691059 0.551564 2.352844 157 153 108
-0.753541 0.591650 2.861599 158 154 107
-3.255426 4.434457 12.207391 153 147 51
-1.546456 2.055632 4.613965 154 148 52
-2.672472 3.611417 9.676865 154 148 52
-2.270864 3.049909 7.905198 154 148 52
-1.590810 2.106379 4.867663 153 147 51
-1.570289 2.059931 4.868614 153 147 51
-2.283135 3.028037 8.160383 152 146 50
-1.267602 1.623037 3.603871 153 147 51
-0.621440 0.557624 1.587783 58 59 53
-0.829143 0.729869 3.112683 58 59 51
-0.756682 0.665151 2.604533 59 60 52
-0.650297 0.573292 1.842200 55 56 48
-1.742526 1.456806 9.975719 56 56 46
-0.774911 0.656763 2.859442 48 49 41
-0.604212 0.518627 1.588582 98 98 88
-0.664636 0.556099 2.097290 192 192 158
-1.485253 1.172358 8.453117 180 177 142
-0.588898 0.483964 1.589292 166 163 132
-0.554911 0.456683 1.335112 168 165 132
-2.783576 3.810017 10.179992 153 147 51
-2.474100 3.352639 8.915919 154 148 52
-3.316104 4.431893 13.223508 153 147 51
-1.206679 1.553572 3.349632 152 146 50
-1.524129 1.980371 4.869018 152 146 50
-0.788012 0.703158 2.857669 64 65 59
-1.851317 1.602568 10.734565 62 63 57
-0.885161 0.777179 3.620216 57 58 52
-0.677585 0.599084 2.095738 56 57 51
-1.929033 1.632601 11.498012 54 55 49
-1.610144 1.348423 9.211644 52 53 48
-1.258826 1.039466 6.671095 106 108 94
-0.727574 0.614981 2.604787 178 180 159
-1.438193 1.153712 8.196881 199 199 175
-0.622706 0.523490 1.842598 171 171 145
-0.588424 0.494518 1.588504 154 154 130
-1.739620 1.349737 10.739742 157 156 135
-0.616458 0.509347 1.842888 160 159 138
-0.612293 0.499918 1.843081 175 175 149
-1.687610 2.280136 5.370928 154 148 52
-1.572362 2.114475 4.865046 153 147 51
-2.861313 3.889577 10.939992 153 147 51
-1.316445 1.725613 3.854459 153 147 51
-1.473667 1.938679 4.614008 153 147 51
-0.815995 0.735639 3.110818 61 64 57
-0.711039 0.640876 2.348847 62 65 58
-0.640935 0.577401 1.840872 60 63 56
-0.739873 0.658541 2.603122 59 61 56
-1.641925 1.415075 9.462835 57 59 54
-1.793494 1.520140 10.733870 53 56 49
-0.564522 0.499644 1.333190 51 54 47
-0.628439 0.549115 1.841451 52 54 43
-0.591779 0.513738 1.587538 129 130 114
-0.783821 0.662811 3.112309 184 182 167
-2.067199 1.663649 13.277303 192 190 177
-1.513721 1.220089 8.957553 169 167 154
-1.475101 1.180275 8.703731 130 128 115
-1.848297 1.453777 11.753777 113 114 100
-0.922848 0.739487 4.383925 123 124 108
-0.607612 0.501973 1.842416 132 130 115
-1.567243 2.127813 4.863547 155 149 53
-1.394465 1.876466 4.104933 153 147 51
-1.542618 2.072075 4.864688 153 147 51
-1.484500 1.987103 4.611841 152 146 50
-1.205148 1.587683 3.347085 152 146 50
-1.735460 2.322257 5.877913 153 147 51
-3.157000 4.282293 12.711625 152 146 50
-0.608534 0.563288 1.585952 67 67 65
-1.592760 1.393711 9.206554 61 62 57
-0.695923 0.621355 2.348524 53 55 50
-1.775563 1.528010 10.731325 55 58 51
-0.625841 0.555884 1.840690 51 54 47
-1.435078 1.223114 8.191700 53 54 46
-0.589391 0.519959 1.586839 46 48 37
-0.715941 0.620087 2.603136 74 76 65
-0.681405 0.588495 2.349196 142 144 133
-0.678985 0.583018 2.349309 191 191 181
-0.613345 0.527598 1.841270 183 183 171
-1.428757 1.162225 8.447533 144 144 134
-1.391021 1.123388 8.193742 113 113 103
-1.695779 1.347417 10.735023 112 114 103
-0.972151 0.780806 4.891127 121 123 112
-1.467225 2.017461 4.355507 153 147 51
-2.621414 3.673305 9.666871 154 148 52
-1.499268 2.044435 4.609492 154 148 52
-1.549811 2.113282 4.862618 153 147 51
-1.314748 1.763438 3.851636 152 146 50
-1.467783 1.973168 4.610951 152 146 50
-1.192009 1.576730 3.346385 152 146 50
-2.925540 3.997247 11.696530 151 145 49
-3.074258 4.197203 12.456045 151 145 49
-0.637822 0.595652 1.839254 72 72 70
-0.567150 0.526798 1.331591 77 78 73
-0.697743 0.640173 2.347416 75 76 71
-0.561912 0.514943 1.331834 67 68 62
-1.537553 1.356625 8.950696 59 61 56
-1.465932 1.285621 8.443076 60 61 55
-1.330499 1.161293 7.427476 55 56 50
-0.683226 0.607312 2.348088 52 53 47
-0.612829 0.539081 1.840412 89 90 82
-0.610747 0.534367 1.840509 164 166 155
-1.507423 1.242868 9.207561 170 170 158
-0.666289 0.568974 2.348873 124 124 114
-0.630891 0.534408 2.095045 107 110 101
-0.537471 0.459619 1.332966 112 118 106
-3.218512 4.579346 12.445485 151 145 49
-2.165465 3.041886 7.641727 154 148 52
-1.978833 2.753042 6.884183 154 148 52
-2.243878 3.130310 8.148889 154 148 52
-2.930202 4.104883 11.437255 154 148 52
-1.581869 2.166239 5.114795 154 148 52
-1.257043 1.698190 3.597461 153 147 51
-2.193527 3.016338 8.151223 152 146 50
-2.870816 3.970461 11.440008 151 145 49
-1.126792 1.492431 3.092701 150 144 48
-0.596101 0.558399 1.584909 93 94 89
-1.575376 1.439000 9.201464 85 86 80
-1.820396 1.637339 11.233293 66 67 61
-2.069689 1.845348 13.264924 60 61 56
-1.963928 1.739558 12.503631 57 58 52
-1.572402 1.387733 9.457000 52 53 47
-1.280005 1.126690 7.171969 50 51 45
-1.676428 1.445065 10.473771 48 49 41
-0.545768 0.489003 1.331843 53 54 46
-1.071393 0.921695 5.649249 114 117 108
-1.461079 1.224818 8.951364 192 190 178
-0.599818 0.522278 1.840134 150 150 138
-0.537039 0.469245 1.332248 110 112 101
-1.772656 1.440210 11.746302 102 105 94
-0.593570 0.508136 1.840424 102 110 97
-1.652128 2.307711 5.365058 154 148 52
-1.535467 2.130668 4.859811 154 148 52
-3.187380 4.520987 12.698381 154 148 52
-3.275159 4.632655 13.204966 154 148 52
-1.559449 2.141440 5.114026 153 147 51
-1.239927 1.679257 3.596874 154 148 52
-1.917516 2.647360 6.884718 153 147 51
-1.438286 1.954207 4.608988 150 144 48
-3.042253 4.235997 12.449780 149 143 47
-1.168825 1.561827 3.344843 150 144 48
-0.661293 0.630568 2.091731 89 90 84
-0.724371 0.686326 2.599461 91 92 86
-0.559302 0.530242 1.330477 82 83 77
-1.906501 1.752211 11.991765 60 61 55
-1.833699 1.674442 11.484485 52 53 47
-0.582227 0.538622 1.584742 49 50 44
-1.902704 1.700105 12.247268 47 48 42
-0.636531 0.574518 2.092879 39 42 33
-0.695903 0.621887 2.600780 41 44 35
-0.632028 0.564327 2.093087 65 68 59
-0.568828 0.508291 1.585363 150 147 138
-0.564999 0.499626 1.585540 173 169 158
-0.712932 0.616922 2.855318 118 118 106
-1.425400 1.185354 8.950141 85 89 75
-1.537131 1.264217 9.966269 83 89 75
-1.383705 1.939540 4.099342 151 145 49
-3.051003 4.396397 11.934990 153 147 51
-2.988334 4.297034 11.682638 153 147 51
-1.315631 1.827940 3.847241 153 147 51
-2.061350 2.921067 7.386257 153 147 51
-1.842192 2.594950 6.375392 154 148 52
-2.049772 2.894862 7.386794 154 148 52
-1.301910 1.796882 3.847877 154 148 52
-1.245643 1.712008 3.595229 153 147 51
-3.181616 4.522094 12.949958 152 146 50
-1.235858 1.689858 3.595683 152 146 50
-1.441248 1.984814 4.607186 153 147 51
-1.119495 1.511443 3.090565 151 145 49
-1.219548 1.652941 3.596439 151 145 49
-2.294023 3.192804 8.907007 151 145 49
-1.366482 1.858066 4.355395 151 145 49
-0.656234 0.632789 2.091013 63 64 58
-0.686269 0.658286 2.344877 56 57 51
-0.587496 0.562175 1.583688 52 53 47
-0.647229 0.612407 2.091430 49 50 44
-0.609201 0.568815 1.837937 47 48 42
-0.700439 0.647872 2.599475 48 49 43
-0.574097 0.531844 1.584309 48 49 43
-0.602952 0.554672 1.838227 47 48 42
-0.596704 0.540530 1.838516 49 52 43
-0.594622 0.535816 1.838613 98 95 86
-0.622467 0.556356 2.092578 171 164 154
-0.679734 0.601007 2.600435 178 171 161
-1.505691 1.280927 9.709310 138 136 124
-3.084816 4.485043 12.184875 152 146 50
-1.204414 1.679961 3.340576 152 146 50
-1.570152 2.217566 5.109915 152 146 50
-2.784042 4.011554 10.922894 153 147 51
-2.751454 3.937792 10.924404 153 147 51
-1.118771 1.527569 3.089361 152 146 50
-3.122300 4.445496 12.948691 151 145 49
-1.549300 1.506933 9.193830 57 56 51
-1.510425 1.460403 8.940447 54 55 49
-0.678411 0.655196 2.344217 52 53 47
-0.610768 0.585012 1.836984 54 55 49
-0.577451 0.551064 1.583343 55 56 51
-0.604520 0.570870 1.837273 57 58 52
-0.540980 0.509976 1.329849 56 57 51
-0.692034 0.644567 2.598770 55 56 50
-0.621910 0.568767 2.091651 45 48 41
-0.649376 0.589474 2.345563 57 54 45
-0.853801 0.761943 4.122378 130 126 117
-1.197151 1.041550 7.168676 162 158 147
-1.162487 1.004552 6.915099 97 97 85
-3.091581 4.554951 12.180759 151 145 49
-2.707422 3.968486 10.412772 152 146 50
-1.552004 2.202438 5.108949 153 147 51
-2.697190 3.904885 10.668359 153 147 51
-1.487275 2.096364 4.856835 153 147 51
-1.120972 1.550316 3.088021 152 146 50
-2.716851 3.908946 10.922561 152 146 50
-1.423557 1.992578 4.604676 152 146 50
-1.470859 2.059205 4.857596 152 146 50
-3.062984 4.368897 12.947423 151 145 49
-0.578892 0.565951 1.582467 70 69 64
-1.668697 1.617303 10.460913 66 67 62
-0.544040 0.527504 1.328969 62 63 58
-1.406237 1.346748 8.432173 59 60 55
-0.538803 0.515649 1.329212 55 56 50
-0.625855 0.591370 2.090516 50 51 45
-0.555921 0.513956 1.583531 53 53 45
-0.519599 0.472181 1.330102 146 146 134
-0.603343 0.540415 2.091560 117 117 107
-1.683353 2.446863 5.611137 152 146 50
-1.572310 2.274349 5.106200 152 146 50
-2.546069 3.729532 9.906863 152 146 50
-2.427047 3.538959 9.402295 152 146 50
-1.538129 2.196981 5.107784 152 146 50
-2.655324 3.858577 10.666924 150 144 48
-2.580530 3.728697 10.415349 151 145 49
-2.191364 3.123738 8.648093 151 145 49
-0.609737 0.607978 1.835269 152 151 146
-0.669955 0.665446 2.342562 131 130 125
-1.411100 1.397006 8.429214 117 116 111
-1.373824 1.352050 8.175900 100 101 96
-0.632051 0.619068 2.089277 82 83 78
-1.544095 1.500953 9.698259 66 67 62
-0.559276 0.533176 1.582566 54 55 49
-0.616293 0.583399 2.090007 61 62 56
-0.526150 0.497613 1.329060 66 67 61
-0.928105 0.855591 4.881015 91 94 87
-0.520913 0.485758 1.329302 122 123 115
-0.605038 0.557922 2.090529 167 167 157
-0.628822 0.572340 2.344468 199 199 189
-0.790697 0.799864 3.355824 218 215 208
-1.372267 1.386751 8.173309 200 197 190
-1.359679 1.358258 8.173893 157 154 149
-1.323119 1.313898 7.920617 130 127 122
-1.286895 1.270300 7.667325 104 101 96
-1.520374 1.491623 9.696268 79 78 73
-1.483308 1.446120 9.443015 68 67 62
-0.586312 0.567604 1.835474 84 83 79
-0.554974 0.535064 1.581956 96 95 91
-0.656468 0.611218 2.597134 210 210 202
-0.541574 0.504733 1.582577 222 222 214
-0.537745 0.496067 1.582754 225 225 217
-0.656659 0.664742 2.341131 230 227 220
-1.285421 1.303144 7.664873 227 224 217
-0.562157 0.562950 1.580813 209 206 201
-0.797997 0.797803 3.609076 179 176 171
-1.326652 1.321726 8.172761 149 149 141
-0.673944 0.666494 2.595229 125 124 119
-1.430920 1.408251 9.187525 125 124 119
-0.610677 0.598031 2.088363 133 132 128
-0.666180 0.648920 2.595589 160 159 154
-0.548757 0.532619 1.581434 179 178 173
-0.571218 0.546087 1.835292 221 221 211
-0.509574 0.481299 1.328351 229 229 219
-0.670249 0.620757 2.850299 228 228 218
-1.905616 1.943470 13.239824 229 226 219
-0.842151 0.844858 4.115306 214 211 204
-1.236291 1.228117 7.664630 209 206 201
-1.201835 1.186475 7.411399 220 217 212
-0.594362 0.574774 2.088166 232 229 220
-0.503904 0.479069 1.327875 232 229 220
-1.693778 1.805266 11.207501 229 226 217
-0.520930 0.528211 1.326347 229 226 217
-0.576435 0.583195 1.833288 229 226 219
-0.515693 0.516356 1.326590 233 230 223
-0.508710 0.500549 1.326914 232 230 218
-0.998295 1.070494 5.378451 228 225 216
-0.611257 0.640362 2.085479 228 225 216
-0.604503 0.625075 2.085792 229 226 217
-0.503040 0.498320 1.326438 233 230 221
-0.523558 0.555365 1.324748 229 226 217
-0.630069 0.663335 2.338269 230 227 218
-0.535377 0.548838 1.578815 231 228 219
-0.615551 0.630474 2.338941 232 229 220
-0.525806 0.527173 1.579258 233 230 221
-1.564419 1.728482 10.693857 229 226 217
-1.471950 1.615948 9.934514 229 226 217
-1.716431 1.879026 12.214069 229 226 217
-1.596136 1.735762 11.201472 229 226 217
-1.670795 1.807984 11.961641 229 226 217
-0.534903 0.559392 1.578027 229 226 217
-0.503922 0.521522 1.324920 231 229 217
-0.960907 1.007555 5.630969 232 229 220
-0.602854 0.616430 2.338506 232 229 220
-0.547814 0.556359 1.831971 233 230 221
-1.434675 1.608196 9.678608 228 225 216
-1.632344 1.805755 11.705220 227 224 215
-1.787368 1.969254 13.224865 227 224 215
-1.343930 1.465259 9.173870 228 225 216
-1.310019 1.419736 8.920970 230 227 218
-0.498253 0.519292 1.324444 232 230 218
-0.491269 0.503486 1.324768 233 230 221
-1.185134 1.230757 8.163344 234 231 222
-1.153246 1.189810 7.910350 234 231 222
-0.536885 0.544270 1.831597 234 231 222
-1.191511 1.213956 8.417520 234 231 222
-0.899490 1.244397 3.084675 148 142 46
-1.385867 1.965889 6.368411 148 142 46
-0.768010 1.034352 2.327781 148 142 48
-0.879015 1.198053 3.085624 146 140 46
-1.365408 1.919579 6.369359 147 141 47
-0.758331 1.012444 2.328230 150 139 47
-0.867315 1.171570 3.086166 150 141 48
-0.679560 0.892518 1.823222 148 142 48
-0.714275 0.941909 2.075942 148 141 50
-0.671229 0.873661 1.823608 158 150 78
-1.632610 2.386476 7.880359 149 143 47
-1.549267 2.254155 7.375706 148 142 46
-0.687375 0.922858 1.821979 148 142 48
-0.760152 1.031261 2.327122 147 141 47
-0.642120 0.848586 1.569818 150 141 50
-0.634463 0.831254 1.570173 153 144 65
-0.632549 0.826921 1.570262 160 150 81
-2.109712 3.150774 11.160081 148 142 46
-0.799530 1.107947 2.578460 148 142 46
-0.789177 1.084515 2.578939 149 140 47
-0.713161 0.966732 2.074089 149 140 47
-0.784001 1.072799 2.579179 147 140 49
-0.854168 1.177340 3.084300 150 143 53
-0.992480 1.381847 4.094636 151 146 65
-0.771061 1.043508 2.579779 170 161 104
-1.122621 1.646047 4.595313 149 143 47
-1.171583 1.678518 5.355390 152 146 60
-1.812088 2.658189 9.899780 156 151 70
-1.772550 2.689368 9.136319 148 142 46
-0.741419 1.032944 2.324919 147 142 51
-1.054742 1.516303 4.596794 156 153 76
-1.787820 2.648645 9.897743 175 173 114
-1.710117 2.522953 9.393257 186 182 134
-0.969106 1.372655 4.092675 199 194 156
-0.722062 0.989130 2.325816 214 207 181
-0.878321 1.285306 3.079469 149 143 47
-1.209354 1.817959 5.349882 149 143 47
-1.831079 2.816025 9.638604 148 142 46
-0.752918 1.073669 2.323362 148 142 46
-0.782080 1.115606 2.575984 147 141 45
-0.815744 1.167733 2.828396 147 142 48
-0.740820 1.046285 2.323923 147 143 52
-0.666570 0.926361 1.819419 145 141 54
-0.664487 0.921647 1.819515 148 143 62
-0.626826 0.860472 1.567288 159 153 77
-0.799205 1.130297 2.829163 171 167 106
-0.656156 0.902790 1.819901 181 178 127
-0.686727 0.947916 2.072457 204 200 165
-0.643580 0.910022 1.565702 148 142 46
-0.749900 1.081532 2.322479 147 141 45
-0.635923 0.892691 1.566056 150 142 44
-1.136685 1.703492 5.097469 151 145 49
-0.773675 1.112300 2.575278 150 145 53
-1.372625 2.076206 6.863845 154 151 72
-0.730543 1.037718 2.323376 162 158 87
-0.904123 1.315376 3.584839 166 161 97
-0.760735 1.083010 2.575878 179 172 117
-0.758147 1.077152 2.575998 189 185 138
-0.752971 1.065435 2.576238 215 211 182
-1.679419 2.649573 8.624131 149 143 47
-0.675952 0.972898 1.817222 149 143 45
-0.817136 1.204368 2.825999 148 144 45
-0.742042 1.078442 2.321819 149 145 46
-1.198410 1.825106 5.600461 151 145 57
-0.767859 1.114853 2.574453 155 150 68
-0.762683 1.103137 2.574693 162 159 92
-0.970033 1.440325 4.088064 174 169 113
-0.784059 1.129495 2.827532 220 215 195
-0.678859 0.957452 2.070917 230 224 210
-0.710587 1.007243 2.323277 227 224 209
-0.741443 1.091782 2.320823 148 144 47
-1.237669 1.920963 5.850451 150 146 49
-0.662941 0.956095 1.816944 152 147 56
-0.838125 1.247616 3.077619 153 148 64
-0.797159 1.175890 2.825759 162 160 86
-0.829351 1.227754 3.078026 169 168 103
-0.685056 0.985150 2.069678 194 190 145
-0.610091 0.857470 1.565634 228 223 201
-0.705150 1.009630 2.322505 227 225 212
-0.869890 1.277511 3.583665 227 225 210
-0.940868 1.477962 3.325308 151 145 47
-0.818339 1.260553 2.569924 150 144 46
-1.697371 2.790732 8.364001 150 144 46
-1.845763 3.026722 9.625563 151 142 47
-1.763929 2.881448 9.121980 153 144 49
-0.674922 0.995863 1.815507 151 143 45
-0.707010 1.048517 2.067708 150 143 52
-0.704759 1.043422 2.067812 149 142 51
-0.875907 1.330920 3.328319 150 146 55
-0.624931 0.902688 1.564136 156 152 65
-0.834477 1.257122 3.076551 160 157 76
-1.989022 3.211135 11.394737 166 164 90
-0.689001 1.007753 2.068542 171 170 103
-1.514167 2.396025 8.118804 188 188 136
-1.467347 2.310025 7.867287 214 211 178
-0.677745 0.982275 2.069064 224 220 193
-0.675494 0.977180 2.069168 230 226 201
-0.637433 0.911007 1.817245 227 223 212
-0.768912 1.128694 2.825902 231 226 220
-0.633268 0.901579 1.817438 230 226 215
-0.664238 0.951702 2.069690 229 225 213
-0.694872 1.001063 2.321958 228 224 212
-1.018254 1.634002 3.827646 152 147 47
-1.205089 1.962124 5.087069 151 145 47
-1.239387 2.020802 5.339096 151 145 47
-1.734174 2.894330 8.613178 150 144 46
-1.217182 1.970541 5.340125 150 145 43
-0.686902 1.035632 1.814071 150 144 48
-0.759603 1.162277 2.317934 150 144 48
-0.868852 1.352696 3.073720 151 142 47
-0.940036 1.475910 3.577654 152 144 46
-0.893702 1.389987 3.326185 154 144 47
-0.672323 1.002632 1.814747 153 143 46
-0.959939 1.502005 3.830348 152 144 45
-0.812334 1.243722 2.822723 151 145 51
-1.383584 2.233456 6.854112 153 146 58
-0.663993 0.983775 1.815133 154 148 64
-0.657745 0.969632 1.815422 161 158 81
-0.758173 1.140086 2.571617 172 170 109
-1.414815 2.266234 7.359897 181 180 124
-0.649414 0.950775 1.815808 190 188 140
-1.884269 3.063463 10.888770 201 199 160
-0.747821 1.116653 2.572097 210 210 174
-0.711211 1.052741 2.320177 222 221 193
-0.641083 0.931918 1.816194 226 224 201
-0.639000 0.927204 1.816291 226 223 206
-0.765473 1.137652 2.824895 231 227 216
-1.181977 1.833984 6.102606 230 226 214
-0.811882 1.277375 2.568033 150 144 46
-0.645040 0.971459 1.561585 149 143 45
-0.643126 0.967126 1.561673 151 145 47
-0.788589 1.224652 2.569113 152 146 48
-1.152761 1.869629 5.087687 152 146 48
-1.362251 2.236212 6.599249 151 142 47
-0.778237 1.201219 2.569592 152 143 48
-0.838879 1.302616 3.073872 163 156 78
-0.871282 1.358028 3.325916 166 157 88
-1.325268 2.152501 6.600963 170 163 95
-0.935079 1.466566 3.830049 173 168 104
-0.722710 1.093465 2.318621 178 173 117
-1.863892 3.084754 10.632723 185 181 133
-0.752357 1.142638 2.570792 194 191 150
-0.612498 0.897798 1.563093 207 205 167
-0.713032 1.071558 2.319069 215 211 182
-0.710612 1.066081 2.319181 224 219 197
-0.759278 1.140371 2.824016 232 228 217
-0.756522 1.134132 2.824144 230 226 215
-0.880194 1.342333 3.832593 232 228 216
-0.696285 1.082168 1.811874 152 147 47
-1.304608 2.188556 5.839263 152 146 48
-0.838534 1.336511 2.819177 151 145 47
-0.835778 1.330272 2.819305 152 146 48
-0.721097 1.121420 2.064198 151 147 48
-0.867404 1.384949 3.071313 149 145 48
-0.638824 0.969014 1.561063 153 147 53
-1.211144 1.993909 5.590121 153 148 57
-0.810969 1.274117 2.820454 155 148 60
-0.665045 1.011455 1.813322 157 149 64
-0.759481 1.174482 2.569367 179 172 118
-0.965581 1.539532 4.080658 186 178 131
-1.031208 1.654260 4.584565 193 186 144
-0.682828 1.034796 2.065971 197 191 155
-0.714852 1.090375 2.317961 210 205 176
-1.189939 1.928999 5.844578 223 217 193
-0.604367 0.891021 1.562660 232 226 212
-0.667070 0.999128 2.066702 234 228 216
-0.758596 1.155569 2.822882 235 231 219
-0.590968 0.860690 1.563281 233 229 218
-0.872485 1.345716 3.831499 233 229 218
-0.991696 1.636388 3.824523 154 148 50
-0.913059 1.490166 3.321362 153 147 49
-1.167737 1.955425 5.083377 151 147 48
-0.789897 1.259048 2.566862 151 146 52
-1.150647 1.916741 5.084169 152 147 56
-0.670777 1.037080 1.812175 153 147 61
-1.101742 1.821931 4.833033 155 149 65
-0.733610 1.147530 2.316068 165 159 85
-0.872845 1.399141 3.323226 168 161 93
-1.645142 2.797733 8.862292 174 166 101
-1.077117 1.766193 4.834175 177 171 109
-1.030234 1.675958 4.582945 200 192 155
-0.613465 0.923240 1.561428 206 199 170
-0.748488 1.165318 2.568781 216 208 185
-1.018427 1.649233 4.583492 227 220 201
-0.566842 0.833594 1.310187 234 227 217
-0.565096 0.829642 1.310268 234 228 216
-0.596237 0.884243 1.562227 232 228 216
-0.627041 0.938081 1.814202 232 228 217
-0.655257 0.986062 2.066297 235 228 220
-0.749644 1.152048 2.822130 233 229 220
-0.586665 0.862578 1.562671 234 230 221
-0.797020 1.290891 2.565437 153 148 48
-0.943331 1.562613 3.571982 153 148 48
-0.940069 1.555229 3.572133 154 148 50
-1.268798 2.165537 5.836880 151 147 50
-0.749949 1.199208 2.314287 150 145 51
-1.363612 2.335557 6.592480 155 151 62
-0.701974 1.105479 2.063179 166 159 81
-0.806849 1.298273 2.818313 170 164 88
-1.402656 2.394206 7.097334 177 172 106
-0.690718 1.080002 2.063701 186 180 128
-0.618734 0.946792 1.560374 192 186 138
-0.641104 0.982564 1.812669 236 228 215
-0.773771 1.223401 2.819846 234 228 216
-0.566410 0.843219 1.309468 235 231 219
-0.727143 1.132722 2.568676 233 229 217
-0.561172 0.831364 1.309711 233 229 217
-0.656951 1.003569 2.065266 233 229 217
-0.588106 0.877465 1.561794 232 229 222
-0.618195 0.930707 1.813731 236 228 225
-0.582363 0.864466 1.562060 234 229 223
-1.568510 2.762232 7.847050 156 148 49
-0.819949 1.344668 2.816540 155 152 57
-0.744511 1.201594 2.313516 157 153 66
-0.778264 1.264153 2.565212 160 157 78
-1.162836 1.982391 5.333250 182 174 111
-1.300390 2.238381 6.339915 188 180 118
-0.765323 1.234863 2.565811 188 182 124
-0.692412 1.097509 2.062670 193 186 134
-1.984909 3.510986 11.373393 200 191 148
-0.827209 1.347260 3.069463 208 200 164
-2.028434 3.581822 11.877896 217 210 182
-1.950974 3.434173 11.374966 225 217 194
-0.713056 1.130396 2.314974 231 223 202
-0.674403 1.056744 2.063505 240 233 215
-0.773089 1.238598 2.818712 239 233 219
-0.767576 1.226120 2.818967 237 231 219
-0.698539 1.097535 2.315646 239 233 221
-1.115534 1.861479 5.588702 236 232 220
-0.721327 1.135275 2.567850 235 231 219
-0.555503 0.829134 1.309235 234 230 219
-1.033174 1.702737 5.085999 234 230 219
-0.703210 1.094268 2.568690 234 229 223
-0.636133 0.970120 2.065278 233 228 222
-0.971998 1.654304 3.821082 156 148 47
-1.188383 2.067190 5.330187 156 148 50
-0.636929 1.011230 1.557911 156 150 52
-0.671314 1.076243 1.809507 157 152 58
-0.813754 1.347387 2.815661 158 157 67
-1.166178 2.016928 5.331216 173 170 103
-0.734234 1.193027 2.312968 179 174 116
-0.802728 1.322429 2.816172 192 186 134
-0.905837 1.517364 3.570960 199 192 150
-0.902575 1.509981 3.571111 209 201 164
-0.654652 1.038529 1.810279 216 207 174
-0.791702 1.297472 2.816683 225 215 188
-1.819574 3.239544 10.364711 234 225 208
-0.612044 0.954902 1.559065 236 226 216
-1.087659 1.852016 5.081666 238 230 219
-0.606301 0.941903 1.559331 242 234 223
-0.738803 1.190551 2.565946 240 234 222
-0.702779 1.121829 2.314426 241 235 223
-0.658088 1.033487 2.063309 236 232 220
-0.683422 1.078014 2.315323 236 232 220
-0.549833 0.826905 1.308759 237 233 222
-0.637828 0.987627 2.064248 235 230 224
-0.666485 1.039677 2.316108 235 230 224
-0.855011 1.445719 3.065700 154 146 47
-1.105888 1.931021 4.825896 153 147 49
-0.846236 1.425857 3.066107 158 154 65
-1.308088 2.317936 6.335231 162 159 82
-0.766631 1.269259 2.563561 188 185 134
-0.940276 1.603335 3.821101 202 194 155
-0.761454 1.257543 2.563801 220 211 178
-0.689047 1.117236 2.060921 230 223 197
-1.022403 1.753845 4.576648 242 234 221
-0.740750 1.210678 2.564760 240 233 225
-0.704600 1.140646 2.313318 243 235 232
-0.735574 1.198962 2.565000 244 237 231
-0.600085 0.939458 1.558809 242 235 229
-0.859364 1.431983 3.571734 239 235 226
-0.685243 1.096831 2.314215 237 233 221
-0.612483 0.955727 1.811352 238 234 222
-0.639522 1.005135 2.063217 238 234 223
-0.699341 1.116948 2.566680 238 234 225
-0.758488 1.227237 3.070174 237 232 226
-0.595821 0.918013 1.812124 234 229 223
-0.890220 1.466441 4.329656 233 228 222
-0.737875 1.230662 2.310752 153 147 51
-0.910746 1.568099 3.567972 167 161 85
-1.115453 1.966826 5.076763 187 183 135
-0.932567 1.606719 3.820007 219 212 186
-0.859737 1.463411 3.317290 232 224 205
-0.747874 1.242521 2.563335 238 229 212
-0.677234 1.104170 2.060517 237 230 212
-1.047415 1.823593 4.826870 238 231 215
-0.706421 1.159463 2.312210 236 228 215
-0.737522 1.219089 2.563815 236 230 218
-0.701581 1.148509 2.312434 237 231 219
-0.597697 0.945679 1.558110 241 233 230
-0.661476 1.068501 2.061247 241 233 230
-0.588125 0.924014 1.558554 239 235 224
-0.650220 1.043024 2.061769 239 235 224
-1.189182 2.079855 6.338578 238 234 223
-0.867391 1.459192 3.823028 237 233 222
-0.643467 1.027737 2.062082 237 233 222
-0.607802 0.957781 1.810688 238 234 223
-0.572812 0.889351 1.559263 238 234 223
-1.514126 2.686110 9.360074 237 232 226
-0.625458 0.986973 2.062916 237 232 226
-1.912481 3.436990 12.884261 236 231 225
-0.680585 1.090211 2.566454 235 230 224
-0.841863 1.451490 3.063835 153 145 47
-0.625937 1.021227 1.555991 155 150 59
-0.938578 1.641161 3.818277 170 165 101
-0.690184 1.147155 2.058964 181 175 125
-0.653106 1.072977 1.807707 204 199 161
-0.685681 1.136964 2.059173 221 216 187
-0.821389 1.405145 3.064784 228 220 201
-2.191308 4.116040 13.120296 228 219 204
-1.191218 2.135026 5.830369 232 223 208
-0.812614 1.385283 3.065190 233 224 209
-0.606794 0.977898 1.556879 233 224 209
-1.917125 3.563661 11.362178 233 224 209
-1.875163 3.478427 11.111148 234 224 212
-0.698563 1.156373 2.311551 232 224 213
-0.828038 1.410446 3.317450 234 225 216
-0.759334 1.274432 2.814684 235 228 220
-0.623948 1.006978 1.809059 237 230 224
-0.654165 1.065626 2.060633 237 230 222
-0.555520 0.871587 1.306280 237 233 224
-0.841440 1.431034 3.569804 236 232 223
-0.676787 1.107081 2.312560 237 232 226
-0.642910 1.040149 2.061155 237 233 224
-0.797104 1.340426 3.318884 237 233 222
-0.669528 1.090651 2.312896 237 233 222
-1.896036 3.476930 12.375056 238 234 223
-0.538063 0.832071 1.307089 241 237 228
-0.627152 1.004480 2.061885 239 235 226
-1.949736 3.569233 13.131492 237 232 226
-0.706961 1.155883 2.817112 236 231 225
-1.117610 2.023610 5.073048 156 147 52
-0.654673 1.089174 1.806754 164 160 89
-0.924008 1.629015 3.817502 209 204 175
-1.434770 2.654250 7.587387 220 214 192
-0.848926 1.476515 3.315174 222 213 196
-0.608235 0.992785 1.556002 222 212 200
-0.671618 1.118802 2.058872 224 215 198
-0.803115 1.381547 3.064393 225 216 199
-0.797265 1.368306 3.064664 227 217 205
-0.662613 1.098420 2.059289 228 218 208
-0.690706 1.153283 2.310891 231 220 214
-1.012551 1.794530 4.825013 231 222 213
-0.621350 1.013747 1.808298 232 223 214
-1.004343 1.775951 4.825394 232 225 215
-0.872554 1.512547 3.819886 234 227 217
-0.610937 0.990175 1.808781 235 230 224
-0.702596 1.171471 2.563244 236 231 225
-0.668929 1.103991 2.311901 236 232 223
-0.635599 1.037274 2.060541 236 232 223
-0.654158 1.100657 1.805896 157 148 55
-0.684567 1.161787 2.057320 167 162 98
-0.716722 1.226868 2.308662 178 171 127
-0.885491 1.570368 3.565003 197 190 161
-0.675563 1.141405 2.057737 214 207 189
-0.943171 1.685521 4.067995 215 208 192
-1.946491 3.725481 11.606472 219 209 197
-0.702205 1.194007 2.309335 220 211 196
-0.766239 1.323545 2.812032 222 213 196
-0.895717 1.585811 3.817362 222 213 196
-1.254079 2.312242 6.581911 223 214 197
-0.625000 1.034658 1.807248 225 218 202
-0.590533 0.964342 1.556013 226 218 205
-0.616670 1.015801 1.807634 229 221 210
-0.670750 1.122808 2.310793 233 226 218
-0.606256 0.992230 1.808116 234 227 219
-1.159811 2.106568 6.333447 235 228 220
-0.600008 0.978087 1.808406 237 230 224
-0.537198 0.851321 1.305652 238 231 225
-1.374669 2.603931 7.079610 159 150 57
-0.922311 1.666840 3.814678 165 159 81
-0.987272 1.800524 4.317190 171 165 105
-1.527947 2.917481 8.336312 183 175 136
-1.487626 2.832892 8.085420 201 193 170
-0.942280 1.705362 4.066514 206 199 183
-0.668252 1.138530 2.057123 211 201 189
-0.699186 1.201870 2.308451 212 202 192
-1.192021 2.217219 6.077029 212 204 193
-0.727196 1.258590 2.559914 213 205 194
-0.659248 1.118147 2.057541 214 206 193
-0.819554 1.447608 3.313918 215 208 192
-0.557716 0.908367 1.303962 216 209 193
-0.810274 1.426602 3.314348 219 213 199
-0.934532 1.681144 4.319634 221 215 201
-0.772418 1.347593 3.063341 223 214 205
-0.737992 1.276349 2.812175 226 215 209
-0.672571 1.141625 2.309685 226 217 210
-0.888299 1.583175 4.069015 228 219 210
-0.942756 1.693080 4.572014 230 221 212
-1.797262 3.440247 11.609727 230 223 213
-1.758120 3.358327 11.358780 231 224 214
-0.688375 1.170719 2.561713 233 226 220
-0.746094 1.288007 3.064561 235 228 222
-0.533275 0.853043 1.305095 237 230 224
-0.799877 1.396387 3.567591 237 230 224
-0.883877 1.606336 3.562318 158 151 60
-0.744672 1.313866 2.558009 160 156 82
-1.046441 1.946020 4.818234 171 166 110
-0.941390 1.725204 4.065032 183 178 140
-0.971272 1.787185 4.316338 197 191 169
-0.834256 1.499673 3.311928 203 196 180
-0.599157 1.007115 1.553993 205 195 183
-0.663193 1.140750 2.056405 205 197 186
-0.660942 1.135654 2.056510 206 197 188
-0.626052 1.062338 1.805437 207 198 189
-0.718791 1.255285 2.559209 209 201 188
-0.587671 0.981118 1.554526 210 203 187
-0.553792 0.910089 1.303406 212 205 189
-0.742823 1.304026 2.810785 214 206 193
-0.891007 1.611162 4.067367 217 208 199
-0.731797 1.279068 2.811296 219 210 203
-0.667133 1.144012 2.308913 219 210 203
-0.603143 1.010481 1.806499 221 212 205
-0.723528 1.260350 2.811679 223 214 207
-0.568529 0.937788 1.555413 225 216 209
-0.657455 1.122105 2.309361 226 217 210
-0.835705 1.491639 3.817240 228 219 212
-0.682559 1.173272 2.560888 230 221 214
-0.769295 1.352631 3.314938 230 221 214
-0.529351 0.854765 1.304538 232 223 216
-1.074929 2.030796 5.067796 160 156 82
-0.870023 1.594786 3.561580 166 164 105
-1.033113 1.940779 4.817115 178 174 136
-0.764193 1.369138 2.808628 190 185 163
-0.693150 1.217597 2.306684 197 190 172
-0.951503 1.765320 4.315660 199 192 176
-0.655882 1.137875 2.055792 199 193 179
-0.814930 1.474716 3.311515 201 193 180
-1.100658 2.079769 5.571841 202 194 181
-0.776820 1.393087 3.060662 203 196 180
-0.583369 0.983006 1.553915 204 197 179
-0.549869 0.911811 1.302849 205 198 182
-0.736628 1.306744 2.809906 208 200 187
-0.765121 1.366605 3.061204 210 202 191
-0.852007 1.549375 3.815034 214 205 198
-1.524939 2.970637 9.341459 215 206 199
-0.598462 1.012535 1.805834 218 209 202
-0.808048 1.454504 3.564452 219 210 203
-1.779452 3.500400 11.855851 224 215 208
-0.527173 0.860439 1.303901 225 216 209
-1.511696 2.931393 9.847310 229 220 213
-1.829588 3.681898 10.839606 160 157 80
-1.127174 2.167784 5.568662 163 161 100
-0.727862 1.307256 2.556599 174 171 130
-0.692551 1.230937 2.305688 183 179 154
-0.983126 1.856169 4.565148 187 180 161
-0.817258 1.498773 3.310098 189 182 163
-0.717510 1.283823 2.557078 191 184 165
-0.618773 1.071161 1.804012 193 188 169
-0.551183 0.925388 1.302049 197 190 172
-0.801791 1.463763 3.310815 198 191 172
-0.735946 1.321942 2.808771 199 192 173
-0.545945 0.913533 1.302292 201 194 176
-0.912899 1.700819 4.315855 205 197 186
-0.571410 0.967562 1.553660 206 197 188
-0.630563 1.094236 2.056013 207 198 191
-0.535470 0.889823 1.302778 208 199 192
-0.591698 1.009875 1.805267 212 203 196
-0.558010 0.937232 1.554281 216 207 200
-1.654934 3.282954 11.100248 222 213 206
-1.617770 3.202441 10.849423 224 215 208
-1.745578 3.546394 10.335100 157 154 75
-1.705086 3.457327 10.084500 157 155 94
-0.881182 1.657081 3.810779 174 170 143
-0.716870 1.298092 2.556013 179 172 153
-0.650266 1.152507 2.054148 182 175 156
-1.125607 2.189645 5.819261 184 177 158
-0.835790 1.556922 3.560407 186 181 162
-1.147554 2.236735 6.070720 191 184 166
-0.547259 0.927110 1.301493 191 184 166
