ply
format ascii 1.0
element vertex 1102
property float x
property float y
property float z
property uchar red
property uchar green
property uchar blue
end_header
0.633528 -0.881533 1.146173 151 141 44
1.345167 -1.761429 2.536566 151 141 46
1.349833 -1.757915 2.535831 151 141 46
1.354500 -1.754402 2.535096 151 141 46
0.734692 -0.982327 1.318049 151 141 46
0.737368 -0.980312 1.317628 150 140 45
1.548057 -1.962593 2.880230 150 140 45
1.553293 -1.958651 2.879405 150 140 45
1.558528 -1.954709 2.878581 150 140 43
1.466157 -2.016693 2.895235 150 140 45
1.471392 -2.012751 2.894410 151 141 44
0.732969 -0.979756 1.319397 151 141 46
4.040180 -5.022101 7.751698 150 140 45
0.648724 -0.866635 1.144742 150 140 45
2.358847 -2.933529 4.445953 149 139 44
1.555156 -1.949679 2.881219 150 140 43
1.377639 -1.899631 2.723245 152 142 47
1.382590 -1.895904 2.722465 151 141 44
0.731246 -0.977186 1.320745 151 141 46
4.120807 -5.118453 7.932350 150 140 45
4.491943 -5.543578 8.626050 150 140 45
2.174431 -2.708829 4.102059 149 139 44
1.461802 -1.836258 2.709990 150 140 43
1.890887 -2.560416 3.773318 151 141 44
1.566455 -2.101768 3.071805 151 141 44
1.571975 -2.097612 3.070936 151 141 44
0.797466 -1.099191 1.499545 151 141 44
0.800426 -1.096962 1.499079 151 141 44
1.501295 -1.975098 2.893915 151 141 44
0.640862 -0.865641 1.147904 151 141 46
3.578450 -4.452936 6.894281 150 140 45
3.590227 -4.444068 6.892426 150 140 45
3.870548 -4.760196 7.412735 149 139 44
1.368815 -1.723384 2.538476 150 140 43
3.151642 -4.231318 6.401439 153 143 48
1.971664 -2.665291 3.951543 151 141 44
1.562900 -2.096465 3.074586 151 141 44
1.396016 -1.871479 2.724336 152 142 45
0.622587 -0.875946 1.151745 152 142 45
0.624977 -0.874146 1.151368 152 142 45
1.672035 -2.189612 3.245665 152 142 45
1.765179 -2.294800 3.419263 151 141 46
0.813318 -1.082976 1.498240 151 141 46
0.727800 -0.972046 1.323441 150 140 45
3.393340 -4.224646 6.551641 150 140 45
3.404549 -4.216207 6.549876 150 140 45
1.096963 -1.395366 2.018368 150 140 43
1.452670 -1.996574 2.905787 153 143 48
1.373024 -1.881634 2.729949 151 141 46
1.473611 -1.980806 2.902489 151 141 46
1.908941 -2.527572 3.775834 152 142 47
3.123847 -4.061541 6.221832 152 142 47
3.307662 -4.272956 6.569645 152 142 47
2.102658 -2.731531 4.122087 152 142 47
1.586944 -2.070381 3.073021 151 141 46
0.637783 -0.861047 1.150314 150 140 45
1.364884 -1.880606 2.733224 152 142 47
1.454533 -1.987603 2.907600 151 141 46
3.030874 -3.941665 6.052261 151 141 46
2.349991 -3.058349 4.651529 151 141 46
2.531449 -3.270717 4.999943 151 141 46
0.687853 -0.990522 1.332963 151 141 46
0.690528 -0.988508 1.332541 151 141 46
1.541196 -2.088868 3.084669 151 141 46
0.695878 -0.984479 1.331699 151 141 46
0.698554 -0.982465 1.331277 151 141 46
2.842544 -3.720324 5.708869 150 140 45
2.258566 -2.941420 4.480570 150 140 45
0.629921 -0.860054 1.153476 151 141 46
1.245818 -1.614923 2.376748 151 141 46
0.634703 -0.856453 1.152723 150 140 45
2.224920 -2.792665 4.297259 150 140 45
2.232431 -2.787010 4.296076 150 140 45
0.641875 -0.851053 1.151594 150 140 45
0.686129 -0.987952 1.334311 151 141 46
0.688805 -0.985938 1.333889 152 142 47
1.368409 -1.863637 2.736654 152 142 47
1.288459 -1.750159 2.560521 152 142 47
0.696831 -0.979894 1.332625 152 142 47
1.041383 -1.415167 2.033259 151 141 46
1.479201 -1.953891 2.907930 150 140 45
0.628381 -0.857757 1.154681 150 140 45
0.630772 -0.855957 1.154305 150 140 45
2.220082 -2.785449 4.301044 149 139 44
2.315907 -2.886974 4.474677 149 139 44
2.412300 -2.988070 4.648220 149 139 44
1.176022 -1.487465 2.200780 150 140 43
0.684406 -0.985382 1.335659 151 141 46
0.855379 -1.203178 1.686410 152 142 47
0.858623 -1.200735 1.685899 152 142 47
0.861867 -1.198292 1.685388 152 142 47
0.865111 -1.195849 1.684877 152 142 47
0.868355 -1.193406 1.684367 151 141 46
0.871599 -1.190964 1.683856 150 140 45
1.475829 -1.948861 2.910568 150 140 45
1.481064 -1.944919 2.909743 149 139 44
1.404826 -1.829058 2.732911 150 140 45
1.065619 -1.391405 2.030977 150 140 45
1.069432 -1.388534 2.030377 149 139 44
1.169286 -1.486613 2.203490 149 139 44
1.173383 -1.483528 2.202844 150 140 43
0.599003 -0.872966 1.161232 150 140 45
0.769324 -1.090429 1.512315 151 141 46
0.772284 -1.088200 1.511849 151 141 46
0.775243 -1.085972 1.511383 151 141 46
0.693384 -0.974754 1.335322 151 141 46
0.866266 -1.190290 1.686001 151 141 46
1.040285 -1.404969 2.036502 150 140 45
0.787082 -1.077057 1.509519 150 140 45
1.305780 -1.723624 2.561549 149 139 44
1.224205 -1.612192 2.385443 149 139 44
1.228587 -1.608893 2.384753 149 139 44
1.232969 -1.605593 2.384063 149 139 44
0.627692 -0.851363 1.156714 149 139 44
0.630083 -0.849562 1.156338 149 139 44
1.166647 -1.482677 2.205555 149 139 44
1.082228 -1.373386 2.029896 150 140 43
0.680960 -0.980241 1.338355 149 139 44
0.683636 -0.978227 1.337934 150 140 45
0.686311 -0.976212 1.337512 150 140 45
0.688986 -0.974198 1.337091 150 140 45
0.691661 -0.972184 1.336670 150 140 45
1.798294 -2.380693 3.620268 151 141 46
1.037829 -1.401305 2.038423 151 141 46
0.699687 -0.966140 1.335406 150 140 45
0.616589 -0.856267 1.159425 149 139 44
0.618980 -0.854466 1.159048 148 138 43
1.143520 -1.494167 2.210846 148 138 43
0.626153 -0.849066 1.157919 148 138 43
0.628543 -0.847265 1.157542 149 139 44
0.903106 -1.157859 1.681505 149 139 42
0.595923 -0.868372 1.163642 148 139 44
0.598314 -0.866571 1.163265 149 140 45
0.684588 -0.973642 1.338860 149 140 45
0.603095 -0.862971 1.162512 148 139 44
0.605486 -0.861171 1.162136 148 139 44
0.692614 -0.967599 1.337596 148 139 44
1.035373 -1.397642 2.040345 148 139 44
1.039186 -1.394771 2.039744 148 139 44
0.615049 -0.853970 1.160630 148 139 44
0.617440 -0.852169 1.160253 147 137 42
0.878307 -1.171842 1.686716 148 138 43
0.795108 -1.062456 1.510637 148 138 43
0.624613 -0.846769 1.159124 148 138 43
0.627004 -0.844968 1.158747 149 139 44
2.113436 -2.650285 4.140748 149 139 44
1.332433 -1.690062 2.561108 149 139 44
1.424965 -1.792421 2.735717 150 140 45
1.429916 -1.788693 2.734937 150 140 43
1.346432 -1.679521 2.558903 151 141 44
3.302912 -3.991069 6.412788 150 140 43
0.926908 -1.302179 1.869664 147 138 43
0.596774 -0.864274 1.164470 148 139 44
0.941022 -1.291551 1.867442 147 138 43
0.944551 -1.288895 1.866886 146 137 42
1.032917 -1.393979 2.042266 146 137 42
2.939633 -3.733951 5.906507 147 137 42
2.087103 -2.659666 4.147804 148 138 43
0.623073 -0.844472 1.160328 149 139 44
1.406924 -1.798848 2.740551 149 139 44
1.237648 -1.583065 2.388617 150 140 45
1.329428 -1.685579 2.563459 150 140 45
1.334094 -1.682065 2.562724 151 141 46
1.338760 -1.678552 2.561989 152 142 45
3.108449 -3.778457 6.069217 152 142 45
2.676127 -3.245876 5.190820 151 141 44
0.841687 -1.190036 1.695095 146 140 44
0.928164 -1.296132 1.870887 146 140 44
0.686492 -0.964473 1.340714 146 140 44
0.689167 -0.962458 1.340293 145 139 43
1.453735 -1.927655 2.924582 145 139 43
2.987873 -3.854278 6.092374 145 139 43
3.168675 -4.060560 6.442722 145 139 43
2.752060 -3.518208 5.561278 148 138 43
1.989430 -2.551553 3.976683 148 138 43
1.996372 -2.546326 3.975590 149 139 44
1.744230 -2.222551 3.447066 150 140 45
1.663673 -2.111997 3.270342 150 140 45
1.234826 -1.578855 2.390825 150 140 45
1.239208 -1.575556 2.390135 151 141 46
1.418588 -1.782908 2.740707 152 142 47
0.984621 -1.253621 1.861996 151 141 46
4.158595 -5.027281 8.180933 152 142 47
3.553897 -4.284129 6.950288 151 141 46
0.839598 -1.186920 1.696729 145 139 43
0.759793 -1.076211 1.519772 146 140 44
1.020379 -1.392394 2.047310 146 140 44
2.707932 -3.537698 5.572052 146 140 44
1.281420 -1.708236 2.574776 146 140 44
2.472669 -3.202447 5.040527 146 140 44
2.651398 -3.409468 5.391430 146 140 44
2.404641 -3.082871 4.861715 148 138 43
2.156177 -2.757559 4.332268 149 139 44
1.906007 -2.433533 3.803090 150 140 45
1.740308 -2.216701 3.450134 150 140 45
1.487009 -1.895031 2.921449 151 141 46
1.232004 -1.574645 2.393033 151 141 46
1.062323 -1.360812 2.040704 152 142 47
1.066136 -1.357941 2.040104 152 142 47
1.245149 -1.564747 2.390962 152 142 47
3.358765 -4.072433 6.606708 152 142 47
1.959266 -2.393430 3.794702 151 141 46
0.757886 -1.073368 1.521264 146 140 44
2.590157 -3.442255 5.404784 146 140 44
1.848460 -2.467240 3.814832 146 140 44
1.855117 -2.462227 3.813784 146 140 44
3.037828 -3.957111 6.282482 146 140 44
1.362703 -1.810674 2.753493 146 140 44
1.029363 -1.380117 2.047430 146 140 44
1.712033 -2.229190 3.457038 146 140 44
1.803263 -2.330884 3.632310 149 139 44
2.151340 -2.750343 4.336052 150 140 45
1.558877 -2.003735 3.101878 150 140 45
1.564397 -1.999579 3.101008 151 141 46
1.311079 -1.679157 2.571983 151 141 46
1.229181 -1.570435 2.395241 151 141 46
1.233563 -1.567136 2.394551 152 142 47
1.237945 -1.563836 2.393861 153 143 48
1.329744 -1.665102 2.569043 153 143 48
2.036023 -2.496398 3.974934 152 142 47
1.427063 -1.762212 2.743357 151 141 46
2.161588 -2.901746 4.527216 145 139 43
0.924874 -1.283305 1.875665 145 139 43
2.177179 -2.890006 4.524760 145 139 43
2.017902 -2.669984 4.170336 145 139 43
2.695693 -3.519440 5.581628 147 141 45
1.275409 -1.699269 2.579478 147 141 45
0.782617 -1.050467 1.518560 150 140 45
0.700050 -0.942661 1.341809 150 140 45
0.702725 -0.940647 1.341388 151 141 46
0.619304 -0.833483 1.164771 152 142 47
2.539365 -3.127220 5.036984 152 142 47
1.588440 -1.973495 3.099443 152 142 47
0.631258 -0.824482 1.162888 151 141 46
1.775085 -2.172910 3.449558 150 140 45
1.424541 -1.919362 2.937608 145 139 43
0.596247 -0.847389 1.169364 145 139 43
2.689573 -3.510311 5.586416 146 140 44
2.866918 -3.715906 5.938224 146 140 44
1.445482 -1.903593 2.934310 146 140 44
0.698327 -0.940091 1.343157 150 140 45
0.701002 -0.938076 1.342736 151 141 46
2.967626 -3.640075 5.922364 152 142 47
2.455392 -3.008380 4.863821 152 142 47
1.939745 -2.379254 3.805815 151 141 46
1.771164 -2.167060 3.452626 150 140 45
3.067952 -4.057437 6.480567 144 138 42
2.341272 -3.082218 4.885159 144 138 42
2.349636 -3.075920 4.883842 145 139 43
1.269398 -1.690303 2.584181 145 139 43
0.601880 -0.839691 1.169439 145 139 43
1.363038 -1.788949 2.759418 145 139 43
3.873954 -4.803773 7.873500 150 140 45
2.710608 -3.311580 5.396944 150 140 45
0.925114 -1.267821 1.879888 145 139 43
1.011913 -1.371206 2.056316 145 139 43
1.099282 -1.474163 2.232655 145 139 43
1.019539 -1.365464 2.055115 145 139 43
1.023352 -1.362593 2.054515 145 139 43
1.111574 -1.464907 2.230719 149 139 44
2.061749 -2.605626 4.172155 151 141 46
2.154522 -2.704513 4.347643 150 140 45
2.247864 -2.802973 4.523040 150 140 45
2.341775 -2.901004 4.698349 150 140 45
4.611725 -5.579114 9.283406 151 141 46
4.627200 -5.567461 9.280969 151 141 46
4.642676 -5.555809 9.278532 150 140 45
0.690623 -4.324759 7.041805 140 131 38
0.169876 -1.392683 2.122380 139 130 37
0.442097 -2.783316 4.480198 139 130 37
0.449039 -2.778089 4.479105 140 131 38
0.570781 -3.351257 5.460219 140 131 38
0.555901 -3.229494 5.262505 141 132 39
0.352221 -2.186153 3.494065 142 133 40
0.441926 -2.517510 4.080110 142 133 40
0.448299 -2.512711 4.079106 141 132 39
1.078448 -5.362410 8.981302 140 131 38
0.410574 -2.275182 3.684933 140 131 38
0.850217 -4.204588 7.016671 138 129 36
0.809248 -3.969502 6.623009 140 131 38
0.141010 -1.015516 1.526754 141 132 39
0.143685 -1.013501 1.526332 141 132 39
0.256804 -1.460195 2.308747 140 131 38
0.683770 -4.314537 7.047167 140 131 38
0.326587 -2.197475 3.500324 140 131 38
0.588171 -3.458627 5.661019 140 131 38
0.527636 -3.106540 5.070036 141 132 39
0.512085 -2.985693 4.872314 142 133 40
0.534617 -2.968727 4.868765 142 133 40
0.468678 -2.620709 4.278634 141 132 39
0.202889 -1.362723 2.118601 141 132 39
0.156314 -1.132681 1.725592 141 132 39
0.159273 -1.130452 1.725126 140 131 38
0.136612 -1.014960 1.528523 141 132 39
0.139287 -1.012945 1.528102 142 133 40
0.141962 -1.010931 1.527680 142 133 40
0.144638 -1.008916 1.527259 142 133 40
0.628973 -3.030235 5.054077 141 132 39
0.488935 -3.256556 5.279555 140 131 38
0.947979 -5.553807 9.212990 140 131 38
0.939722 -5.427879 9.014004 140 131 38
0.373170 -2.418710 3.895782 139 130 37
0.175917 -1.377932 2.124269 140 131 38
0.522615 -3.099051 5.073964 141 132 39
0.507248 -2.978477 4.876098 142 133 40
0.415790 -2.386618 3.889070 142 133 40
0.446463 -2.495666 4.084525 141 132 39
0.132213 -1.014404 1.530292 141 132 39
0.134889 -1.012390 1.529871 142 133 40
0.274371 -1.568088 2.509336 142 133 40
0.251893 -1.452868 2.312590 141 132 39
0.483732 -3.248794 5.283626 140 131 38
0.323906 -2.315268 3.705590 140 131 38
0.521163 -3.352342 5.478132 140 131 38
0.939111 -5.540579 9.219928 140 131 38
0.931038 -5.414924 9.020798 140 131 38
0.457752 -2.873154 4.686515 139 130 37
0.173644 -1.374541 2.126047 140 131 38
0.177173 -1.371884 2.125491 141 132 39
0.180701 -1.369228 2.124936 142 133 40
1.087144 -5.560847 9.397015 142 133 40
1.101197 -5.550266 9.394802 141 132 39
0.430134 -2.367014 3.889261 142 133 40
0.461477 -2.475147 4.084726 142 133 40
0.271732 -1.564151 2.511401 142 133 40
0.407792 -2.120370 3.491978 141 132 39
0.458007 -3.125160 5.090414 140 131 38
0.900695 -5.286955 8.830488 140 131 38
0.584754 -3.555013 5.872514 139 130 37
0.549233 -3.319114 5.477078 140 131 38
0.174900 -1.368494 2.127269 141 132 39
0.178429 -1.365837 2.126714 142 133 40
0.384013 -2.261617 3.698460 141 132 39
0.134118 -1.005235 1.532146 142 133 42
0.726523 -3.579586 6.050703 142 133 42
0.632041 -3.125439 5.263521 142 133 42
0.430446 -2.226654 3.691147 142 133 42
0.758046 -4.851638 8.055747 140 131 38
0.172078 -1.496430 2.329764 140 131 38
0.154984 -1.378389 2.131826 140 131 38
0.582325 -3.674838 6.077122 140 131 38
0.570068 -3.553157 5.878423 140 131 38
0.143811 -1.255891 1.932956 140 131 38
0.543846 -3.311078 5.481293 140 131 38
0.172627 -1.365104 2.129047 141 132 39
0.311833 -2.045754 3.310903 142 133 40
0.285273 -1.803930 2.913827 142 133 40
0.097659 -0.897908 1.338335 142 133 40
0.245966 -1.571704 2.518757 142 133 40
0.569915 -3.029626 5.075927 142 133 40
0.727040 -3.696782 6.254961 141 132 41
0.132395 -1.002664 1.533494 141 132 41
0.567843 -2.900275 4.875624 141 132 41
0.523870 -2.671562 4.481289 139 132 41
0.140421 -0.996621 1.532230 139 132 41
0.750277 -4.840050 8.061825 141 132 39
0.190060 -1.607877 2.529211 141 132 39
0.152712 -1.374999 2.133604 141 132 39
0.513366 -3.321937 5.489459 141 132 39
0.141721 -1.252774 1.934590 141 132 39
0.123105 -1.136292 1.736778 141 132 39
1.056162 -5.914727 10.021095 141 132 39
1.048638 -5.789892 9.821535 142 133 40
0.556996 -3.158584 5.281843 142 133 40
0.565076 -3.152500 5.280571 143 134 41
0.589315 -3.134249 5.276754 143 134 41
0.547984 -2.904370 4.881774 141 132 41
0.130672 -1.000094 1.534842 138 131 40
0.493841 -2.553638 4.288068 138 131 41
0.112855 -0.883010 1.336904 137 130 40
0.562771 -3.793000 6.288480 141 132 39
1.024599 -5.786854 9.831206 141 132 39
1.128207 -6.229195 10.618324 142 133 40
0.159097 -1.235001 1.933160 142 133 40
0.147836 -1.113391 1.734074 142 133 42
0.543146 -2.897154 4.885559 140 131 40
0.388052 -2.103314 3.503973 138 131 41
0.393572 -2.099158 3.503103 136 131 40
0.803913 -4.894465 8.264060 141 132 39
0.158752 -1.360248 2.135493 141 132 39
1.086537 -6.237788 10.631230 141 132 39
1.080518 -6.112642 10.431204 141 132 39
1.095993 -6.100990 10.428767 142 133 40
0.271590 -1.793994 2.921616 142 133 40
0.693874 -3.810222 6.472630 141 132 39
0.609718 -3.354879 5.681991 141 132 39
0.530798 -2.895593 4.890526 141 132 39
0.538309 -2.889938 4.889343 138 131 40
0.384497 -2.098011 3.506754 138 131 41
0.390016 -2.093855 3.505885 137 130 40
0.333543 -2.386932 3.919176 141 132 39
0.339631 -2.382347 3.918217 141 132 39
1.039601 -6.121079 10.443876 142 133 40
0.799342 -4.750791 8.068661 141 132 39
1.048955 -5.984769 10.241315 142 133 40
0.106776 -1.006484 1.541835 142 133 40
0.365322 -2.233736 3.713083 142 133 40
0.347824 -2.117645 3.514751 141 132 39
0.478219 -2.665793 4.499654 141 132 39
0.581783 -3.104877 5.287695 138 131 40
0.247703 -1.546702 2.525080 138 131 41
0.597942 -3.092710 5.285150 138 131 41
0.556004 -2.865755 4.889580 138 131 41
0.234702 -1.427225 2.326040 137 130 40
0.203592 -1.702848 2.734878 141 132 39
0.349896 -2.494671 4.120253 141 132 39
0.707062 -4.287417 7.283239 142 133 40
0.143096 -1.232979 1.939597 141 132 39
0.107728 -1.001900 1.542762 141 132 39
0.644816 -3.561155 6.085829 142 133 40
0.092350 -0.884623 1.343982 140 131 38
0.497435 -2.770142 4.700624 140 131 38
0.240966 -1.545850 2.527790 137 130 39
0.543656 -2.864195 4.894547 138 131 41
0.551166 -2.858539 4.893364 139 132 42
0.533567 -2.742936 4.694934 139 132 42
0.137820 -1.360706 2.143050 141 132 39
0.339418 -2.493347 4.124468 141 132 39
0.345791 -2.488548 4.123464 142 133 40
0.180221 -1.457223 2.337689 142 133 40
0.334629 -2.240065 3.722589 141 132 39
0.267240 -1.777031 2.927935 141 132 39
0.661815 -3.663473 6.288178 140 131 38
0.090810 -0.882326 1.345186 140 131 38
0.234229 -1.544999 2.530500 140 131 38
0.675749 -3.524537 6.084667 138 131 41
1.088463 -5.268877 9.240737 139 132 42
1.226866 -5.806883 10.225524 139 132 42
0.335314 -2.487224 4.127679 140 131 38
0.341687 -2.482425 4.126675 141 132 39
0.327867 -2.364798 3.927421 142 133 40
0.177765 -1.453559 2.339610 142 133 40
0.202908 -1.562660 2.537082 141 132 39
0.556321 -3.217040 5.502892 140 131 38
0.223396 -1.547233 2.533855 140 131 38
0.227493 -1.544148 2.533210 140 131 38
0.231590 -1.541062 2.532565 139 130 37
0.259294 -1.648235 2.729633 137 130 39
0.741483 -3.845813 6.682318 138 131 41
1.177432 -5.694111 10.037992 138 131 41
1.192339 -5.682887 10.035645 139 132 42
0.317857 -2.363533 3.931448 142 133 40
0.143860 -1.345954 2.144939 142 133 40
0.175309 -1.449896 2.341532 142 133 40
0.200269 -1.558723 2.539147 141 132 39
0.234562 -1.660523 2.735292 141 132 39
0.484079 -2.876480 4.912998 140 131 38
0.243326 -1.653924 2.733911 139 130 37
0.224854 -1.540211 2.535275 138 129 36
0.771772 -4.063690 7.084693 136 129 38
0.142318 -1.091873 1.742091 138 131 41
0.512378 -2.727549 4.706996 138 131 41
1.059935 -5.122925 9.054767 139 132 42
0.317610 -2.227706 3.732277 142 133 40
0.302450 -2.111911 3.533004 141 132 39
0.122653 -1.102401 1.746379 141 132 39
0.236122 -1.653013 2.736809 139 130 37
0.733001 -4.077503 7.095081 139 130 37
0.137452 -1.091258 1.744048 138 131 40
0.140411 -1.089029 1.743582 138 131 41
0.604095 -3.156882 5.502100 138 131 41
0.198045 -1.300053 2.137826 138 131 41
0.149901 -1.331203 2.146828 142 133 40
0.153429 -1.328546 2.146272 141 132 39
0.120747 -1.099557 1.747870 141 132 39
0.189462 -1.428214 2.342372 140 131 38
0.282087 -1.865665 3.134883 140 131 38
0.264551 -1.752071 2.935870 139 130 37
0.246445 -1.638905 2.736947 140 131 38
0.227771 -1.526167 2.538114 138 131 40
0.208527 -1.413858 2.339370 138 131 41
0.212340 -1.410987 2.338769 139 132 42
0.168334 -1.190524 1.942150 138 131 41
0.195772 -1.296663 2.139604 138 131 41
0.147628 -1.327813 2.148606 142 133 40
0.254145 -1.879548 3.141276 141 132 39
0.226095 -1.647893 2.741916 141 132 39
0.230477 -1.644594 2.741226 141 132 39
0.234859 -1.641294 2.740535 140 131 38
0.216937 -1.528401 2.541469 141 130 38
0.221034 -1.525316 2.540824 140 131 38
0.385244 -2.286385 3.928186 138 131 40
0.182914 -1.301244 2.143049 138 133 41
0.209885 -1.407323 2.340690 138 133 41
0.166245 -1.187407 1.943785 138 133 42
0.193500 -1.293273 2.141382 139 132 41
0.828072 -5.723445 9.921004 142 133 40
0.842694 -5.712435 9.918702 142 133 40
0.127713 -1.337708 2.153162 142 133 40
0.530078 -3.680247 6.331870 142 133 40
0.539580 -3.673092 6.330374 142 133 40
0.286265 -2.100158 3.542218 142 133 40
0.250956 -1.874792 3.143771 141 132 39
0.227655 -1.640384 2.743434 141 132 39
0.297547 -1.965687 3.338437 141 132 39
0.192177 -1.415145 2.345014 142 131 39
0.109043 -0.973836 1.550092 140 133 42
0.429504 -2.370232 4.125670 139 132 42
0.675009 -4.813035 8.334050 143 134 41
0.140151 -1.448806 2.354742 143 134 41
0.755276 -5.129292 8.927763 143 134 41
0.523958 -3.671118 6.336658 142 133 40
0.514366 -3.552775 6.136051 143 134 41
0.116648 -1.215373 1.954207 142 133 40
0.119892 -1.212930 1.953696 142 133 40
0.182976 -1.542125 2.550115 141 132 39
0.132786 -1.077655 1.749548 138 133 42
0.135746 -1.075427 1.749081 138 133 42
0.240518 -2.118646 3.553865 144 135 42
0.155753 -1.556700 2.556052 143 134 41
0.288240 -2.333020 3.950815 143 134 41
0.186955 -1.658360 2.753370 143 134 41
0.191337 -1.655060 2.752680 143 132 42
0.215198 -1.762248 2.951155 141 132 39
0.121047 -1.207370 1.954820 141 132 39
0.433868 -2.723982 4.736810 141 132 39
0.355214 -2.282590 3.940267 141 132 39
0.317793 -2.060459 3.541695 141 132 41
0.455547 -2.707658 4.733396 141 132 41
0.440450 -2.593872 4.533541 139 132 42
2.154197 -2.161363 7.106777 238 237 235
2.043506 -2.035525 6.708297 234 230 227
1.931678 -1.910543 6.309995 222 219 214
0.479589 -0.493701 1.547725 163 161 148
0.482264 -0.491687 1.547304 168 166 153
0.610252 -0.604501 1.943060 166 163 154
1.683487 -1.574460 5.309300 195 192 183
0.874023 -0.824260 2.733346 232 229 222
1.324962 -1.216863 4.118024 232 229 224
2.869217 -2.564305 8.865779 231 228 221
3.139868 -2.778883 9.654981 231 228 221
0.632961 -0.587401 1.939484 233 230 223
0.831000 -0.752061 2.532165 230 227 220
0.835098 -0.748976 2.531519 228 225 218
0.446192 -0.414256 1.345028 229 226 217
0.448582 -0.412455 1.344652 228 225 216
2.147344 -2.151141 7.112138 238 237 235
2.037020 -2.025849 6.713371 235 231 230
1.864791 -1.842988 6.116282 226 223 218
0.775094 -0.788234 2.542618 206 203 196
0.779192 -0.785148 2.541973 147 145 133
0.415962 -0.433562 1.350751 158 156 141
0.915861 -0.890603 2.936591 173 171 156
1.357839 -1.287076 4.323482 167 165 153
1.992071 -1.851331 6.304308 183 180 171
0.992902 -0.936774 3.132529 217 214 207
0.871200 -0.820050 2.735554 231 228 221
2.669030 -2.383413 8.278406 230 227 222
2.617197 -2.318261 8.078498 230 227 220
0.501943 -0.473001 1.545281 233 230 223
0.828361 -0.748125 2.534229 231 228 221
0.767426 -0.689826 2.335755 229 226 219
0.444652 -0.411959 1.346233 229 226 217
0.578246 -0.519729 1.741335 228 225 216
0.580120 -0.617810 1.950417 237 235 236
1.970235 -1.957807 6.519757 237 233 232
1.858855 -1.834132 6.120927 230 226 223
0.833323 -0.842236 2.743282 222 219 212
0.414422 -0.431265 1.351956 153 151 136
0.416813 -0.429464 1.351579 175 173 158
0.419204 -0.427664 1.351203 172 170 158
1.235060 -1.162360 3.929127 178 175 166
1.052572 -0.988457 3.333310 210 207 200
0.805235 -0.759615 2.539520 226 223 218
0.745905 -0.700518 2.340679 231 228 223
3.377385 -2.973664 10.461857 230 227 220
0.567461 -0.523571 1.744225 232 229 222
0.764970 -0.686163 2.337676 229 226 219
0.573380 -0.519114 1.743293 229 226 217
0.445503 -0.407862 1.347061 228 225 216
1.302661 -1.309374 4.337531 233 232 228
1.067719 -1.072843 3.541331 232 231 227
0.408101 -0.432568 1.353914 189 188 183
0.410491 -0.430768 1.353537 137 136 131
0.412882 -0.428968 1.353161 146 145 140
0.415273 -0.427167 1.352784 178 177 172
0.728197 -0.708339 2.345002 182 182 174
0.607228 -0.592708 1.947453 192 189 182
0.547797 -0.534099 1.748513 210 207 200
0.865556 -0.811630 2.739970 223 220 213
0.806693 -0.752593 2.540940 229 226 219
0.429618 -0.416366 1.350525 231 228 221
3.239792 -2.848178 10.073155 231 228 221
0.565555 -0.520727 1.745716 231 228 221
0.697848 -0.627832 2.141482 231 228 221
0.571474 -0.516270 1.744784 230 227 218
0.443963 -0.405565 1.348266 229 226 217
1.657967 -1.649900 5.534740 232 231 227
1.196774 -1.173584 3.940057 208 207 203
2.851755 -2.707019 9.306607 161 160 156
1.024888 -0.994166 3.341884 155 154 150
0.537011 -0.537941 1.751403 185 184 180
0.787664 -0.760997 2.545586 195 194 189
0.667346 -0.645698 2.147706 202 199 194
1.108321 -1.034291 3.537159 216 213 206
0.862734 -0.807420 2.742178 228 225 218
0.804054 -0.748656 2.543005 232 229 222
1.130400 -1.017666 3.533681 231 228 221
0.502125 -0.461262 1.548483 231 228 221
0.634336 -0.567606 1.944490 230 227 218
0.572528 -0.511198 1.745810 229 226 217
0.395458 -0.435175 1.357829 238 237 233
1.617070 -1.566066 5.336018 219 218 214
1.259828 -1.219840 4.141106 187 186 182
1.205030 -1.158565 3.941207 168 167 163
0.965295 -0.928932 3.144847 191 190 186
0.599805 -0.588917 1.951234 204 203 198
0.603049 -0.586474 1.950723 210 207 202
1.042457 -0.973368 3.341224 221 218 211
0.922505 -0.858615 2.943057 228 225 218
0.738537 -0.689528 2.346443 231 228 221
1.190291 -1.067125 3.735000 231 228 221
0.500402 -0.458691 1.549831 231 228 221
0.503077 -0.456677 1.549409 230 227 218
0.505752 -0.454662 1.548988 229 226 217
0.393918 -0.432878 1.359034 236 235 231
0.578250 -0.600457 1.955934 232 231 227
1.551447 -1.501672 5.140962 223 222 218
0.648687 -0.649546 2.153484 209 208 204
0.774191 -0.759295 2.551006 193 192 188
0.717016 -0.700220 2.351367 206 205 201
0.720829 -0.697349 2.350766 214 213 208
1.157533 -1.083401 3.742495 220 217 212
1.039085 -0.968338 3.343862 228 225 218
0.857089 -0.799000 2.746594 231 228 221
0.736081 -0.685865 2.348364 231 228 221
0.613936 -0.573586 1.950314 232 229 222
0.553917 -0.516654 1.751123 231 228 221
0.691030 -0.617662 2.146816 231 228 221
0.565755 -0.507739 1.749258 230 227 218
0.504029 -0.452092 1.550336 229 226 217
0.392378 -0.430581 1.360239 234 233 229
0.394769 -0.428781 1.359862 230 229 225
2.946192 -2.779622 9.725874 220 219 215
2.960530 -2.768827 9.723617 213 212 208
0.897829 -0.863704 2.950699 216 215 211
0.841121 -0.804689 2.750872 221 220 215
1.338769 -1.243686 4.342562 227 224 219
0.973770 -0.908236 3.147497 232 229 222
0.978721 -0.904508 3.146718 233 230 223
2.483950 -2.212251 7.919851 231 228 221
0.549051 -0.516039 1.753080 229 226 219
0.488930 -0.459594 1.553791 229 226 219
2.709376 -2.347652 8.510623 230 227 220
0.628067 -0.558255 1.949394 231 228 219
0.566809 -0.502667 1.750284 230 227 218
0.390838 -0.428284 1.361443 231 230 226
0.393229 -0.426484 1.361067 230 229 225
1.060983 -1.038016 3.553500 225 224 220
2.695609 -2.542365 8.935619 224 223 219
3.072539 -2.866365 10.129491 219 218 214
2.782914 -2.577930 9.130742 221 220 216
1.939730 -1.794584 6.339321 225 224 219
1.273006 -1.182276 4.146726 228 225 220
1.094101 -1.013078 3.548284 231 228 221
2.663349 -2.364049 8.522955 231 228 221
2.237690 -1.975439 7.127885 230 227 220
0.429091 -0.399480 1.355419 231 228 221
0.690013 -0.608225 2.149816 231 228 219
0.629222 -0.552696 1.950518 230 227 218
0.565494 -0.595992 1.961860 227 226 222
0.568738 -0.593549 1.961349 228 227 223
1.826516 -1.765203 6.151988 227 226 222
1.356776 -1.311770 4.554071 227 226 222
2.566799 -2.418489 8.543244 226 225 221
2.518992 -2.353595 8.341786 222 221 217
2.834953 -2.620144 9.336960 223 222 218
2.665699 -2.444912 8.736655 224 223 218
1.268901 -1.176153 4.149937 229 226 221
2.095908 -1.865032 6.736522 232 229 222
2.480556 -2.180752 7.929866 230 227 220
0.422770 -0.400784 1.357377 231 228 221
0.425160 -0.398984 1.357000 231 228 221
0.427551 -0.397183 1.356624 231 228 221
0.687740 -0.604835 2.151595 231 228 219
0.627133 -0.549579 1.952153 230 227 218
0.392540 -0.420090 1.363100 228 227 223
1.939383 -1.867852 6.556125 230 229 225
0.397322 -0.416489 1.362347 229 228 224
0.399712 -0.414689 1.361970 228 227 223
0.402103 -0.412889 1.361594 225 224 220
0.404494 -0.411089 1.361217 226 225 221
0.406885 -0.409288 1.360841 226 225 220
0.409276 -0.407488 1.360464 229 226 221
2.286231 -2.008605 7.337906 231 228 221
0.421230 -0.398487 1.358582 231 228 221
0.612067 -0.556233 1.955831 232 229 222
0.426011 -0.394886 1.357829 233 230 223
0.872092 -0.762363 2.751285 232 229 222
0.685468 -0.601445 2.153373 231 228 219
0.688996 -0.598788 2.152817 230 227 218
0.444584 -0.477515 1.565082 227 226 222
0.388609 -0.419593 1.364681 229 228 224
0.391000 -0.417793 1.364305 229 228 224
0.400563 -0.410592 1.362798 229 228 224
0.402954 -0.408792 1.362422 229 228 224
0.405345 -0.406991 1.362045 229 228 223
0.407736 -0.405191 1.361669 231 228 223
0.410127 -0.403391 1.361292 231 228 223
1.162058 -1.038038 3.753462 231 228 223
2.626550 -2.236907 8.334785 232 229 224
0.746680 -0.650321 2.354368 231 228 221
0.442861 -0.474945 1.566430 227 226 222
0.387069 -0.417296 1.365886 229 228 224
2.918497 -2.497521 9.340427 231 228 223
3.183198 -2.696839 10.136061 231 227 224
0.441138 -0.472374 1.567778 228 227 223
0.443813 -0.470360 1.567356 229 228 224
0.555047 -0.580408 1.970034 228 227 223
0.500190 -0.522877 1.769114 229 228 224
0.556201 -0.574848 1.971157 229 228 224
2.870446 -2.375561 9.154945 230 227 220
2.757856 -2.263489 8.753329 230 227 220
3.049469 -2.515306 9.761543 230 227 220
2.686684 -2.200395 8.559948 229 226 219
0.432523 -0.459523 1.574518 228 227 223
0.691359 -0.653389 2.373823 229 228 224
0.695172 -0.650518 2.373222 231 227 224
2.308496 -2.236822 8.214495 229 228 224
0.719396 -0.723545 2.581074 229 228 224
3.068670 -2.825785 10.616356 230 229 225
1.677588 -1.550524 5.792276 229 228 224
2.628492 -2.382991 9.004626 229 228 224
0.692716 -0.646854 2.375144 229 228 223
2.244011 -2.171572 8.019259 229 228 224
0.724952 -0.713437 2.581848 229 228 224
0.678821 -0.651804 2.378867 229 228 224
0.682634 -0.648933 2.378266 229 228 224
0.745440 -0.698011 2.578621 230 229 224
0.690260 -0.643191 2.377065 229 228 223
0.458504 -0.432224 1.572580 229 229 219
1.002349 -0.890038 3.379145 229 229 219
1.007585 -0.886096 3.378321 229 229 219
1.012820 -0.882154 3.377496 229 229 221
0.469205 -0.424166 1.570894 229 229 221
1.023290 -0.874270 3.375847 229 229 219
-0.078545 -1.470716 3.140148 140 131 38
-0.068304 -1.744709 3.771334 140 131 38
-0.067070 -1.555977 3.349273 139 130 37
-0.066973 -1.368101 2.927392 139 130 37
-0.062591 -1.364802 2.926702 140 131 38
-0.058209 -1.361502 2.926012 140 131 38
-0.053828 -1.358203 2.925322 138 129 36
0.025417 -3.270464 7.342432 139 130 37
0.024224 -2.989658 6.709822 140 131 38
-0.014390 -1.328508 2.919111 140 131 38
0.071285 -2.390813 5.436813 140 131 38
0.226342 -4.339890 10.052917 140 131 38
0.205504 -3.886073 9.001534 139 130 37
0.196347 -3.611264 8.370177 139 130 37
-0.081551 -1.466233 3.142499 139 130 37
-0.070184 -1.831635 3.984898 138 129 36
-0.038380 -2.649100 5.879316 139 130 37
-0.065414 -1.360592 2.928910 140 131 38
-0.055406 -1.540037 3.349429 139 130 37
-0.056650 -1.353993 2.927530 138 129 36
-0.038741 -1.714469 3.768899 139 130 37
0.029103 -3.252718 7.346019 140 131 38
-0.048458 -0.880374 1.871004 140 131 38
-0.045499 -0.878145 1.870537 139 130 37
0.010936 -1.677063 3.761076 140 131 38
0.066264 -2.383324 5.440741 140 131 38
0.170189 -3.520443 8.167990 140 131 38
0.040094 -1.748598 3.967531 139 130 37
-0.073689 -2.291279 5.043595 141 132 39
-0.067955 -2.193882 4.831531 139 130 37
-0.062789 -2.096913 4.619555 138 129 36
-0.033464 -3.098701 6.937717 138 129 36
-0.028368 -2.908705 6.514591 139 130 37
-0.013891 -3.083963 6.934634 139 130 37
-0.042296 -1.709166 3.771681 139 130 37
-0.026328 -1.976379 4.402651 140 131 38
0.017647 -2.315583 5.240373 140 131 38
0.053427 -2.660957 6.079386 140 131 38
-0.047405 -0.875302 1.872029 139 130 37
-0.009895 -1.405531 3.133092 140 131 38
0.162787 -3.509401 8.173781 140 131 38
0.167384 -3.412861 7.961895 139 130 37
-0.077319 -2.376232 5.258352 141 132 39
-0.073735 -2.095530 4.623958 140 131 38
-0.068670 -1.999049 4.411885 138 129 36
-0.039767 -3.089298 6.942648 138 129 36
-0.034305 -2.899850 6.519235 139 130 37
-0.056833 -1.526796 3.353639 139 130 37
-0.042836 -1.794260 3.985263 140 131 38
-0.046931 -1.519341 3.352079 140 131 38
-0.029292 -1.691394 3.771854 140 131 38
-0.036232 -1.418616 3.139118 139 130 37
-0.044878 -1.147123 2.506651 140 131 38
-0.059953 -0.787803 1.663920 141 132 39
0.047857 -2.652648 6.083744 140 131 38
-0.017566 -1.404562 3.136179 139 130 37
-0.040776 -0.958699 2.083452 140 131 38
0.026813 -1.741816 3.974295 140 131 38
0.025904 -1.649832 3.763161 139 130 37
-0.082157 -2.369017 5.262136 141 132 39
-0.083650 -1.632088 3.571245 139 130 37
-0.031888 -4.637579 10.538989 138 129 36
-0.079957 -1.260281 2.725101 138 129 36
-0.077838 -1.166429 2.513376 139 130 37
-0.008392 -3.789578 8.632772 139 130 37
0.034242 -4.864554 11.162747 140 131 38
-0.077727 -0.797319 1.667796 140 131 38
0.088771 -4.638981 10.731378 140 131 38
0.111617 -4.806292 11.150561 139 130 37
-0.004791 -2.033992 4.615780 139 130 37
-0.043521 -1.140589 2.507972 141 132 39
0.056756 -2.910214 6.719995 140 131 38
-0.030787 -1.223257 2.717357 139 130 37
-0.042866 -0.955583 2.085087 140 131 38
0.023075 -1.736239 3.977219 140 131 38
-0.003770 -1.295170 2.924493 138 129 36
-0.092915 -1.539650 3.363306 141 132 39
-0.052158 -4.999085 11.394087 140 131 38
-0.042532 -4.532610 10.335045 138 129 36
-0.022150 -4.884644 11.177856 136 127 34
-0.060542 -2.158192 4.838745 138 129 36
-0.059841 -1.882128 4.204119 138 129 36
-0.056117 -1.787478 3.992027 141 132 39
-0.047664 -1.872959 4.202201 141 132 39
0.049358 -4.647108 10.743584 140 131 38
0.041740 -4.009927 9.264247 140 131 38
0.044149 -3.732578 8.629352 141 132 39
-0.034669 -1.587638 3.565639 140 131 38
-0.062003 -0.873457 1.877901 140 131 38
0.032076 -2.547679 5.881685 140 131 38
0.001045 -1.836282 4.194530 139 130 37
0.152981 -4.293546 10.092749 140 131 38
0.007729 -1.739404 3.981972 140 131 38
0.007755 -1.647539 3.770463 140 131 38
0.019337 -1.730663 3.980144 140 131 38
-0.006592 -1.290960 2.926701 138 129 36
-0.097527 -1.261664 2.731166 140 131 38
-0.063068 -4.893081 11.190528 139 130 37
-0.052810 -4.428187 10.130814 138 129 36
-0.079923 -1.614145 3.574873 137 128 35
-0.066626 -2.061303 4.630877 138 129 36
-0.063762 -1.876278 4.207187 139 130 37
-0.059855 -1.781902 3.994952 140 131 38
0.022386 -4.554434 10.542211 139 130 37
0.037008 -4.543424 10.539909 139 130 37
0.009145 -3.284326 7.581620 139 130 37
0.019785 -3.276315 7.579945 139 130 37
-0.074076 -0.695400 1.457754 139 130 37
-0.063909 -0.870613 1.879393 140 131 38
-0.002537 -2.104479 4.832404 140 131 38
-0.004508 -1.923095 4.409475 139 130 37
-0.002877 -1.830432 4.197598 138 129 36
-0.031968 -1.212299 2.720841 139 130 37
0.003990 -1.733828 3.984897 139 130 37
-0.001395 -1.555014 3.562505 139 130 37
-0.037312 -0.942021 2.086824 139 130 37
-0.034068 -0.939578 2.086313 137 128 35
-0.092881 -3.527814 8.025439 140 131 38
-0.083400 -3.247606 7.388743 139 130 37
-0.093692 -1.070806 2.308743 138 129 36
-0.079861 -1.879598 4.212172 137 128 35
-0.073772 -1.875013 4.211213 139 130 37
-0.069397 -1.780696 3.998790 140 131 38
-0.053603 -2.223918 5.054974 139 130 37
-0.060071 -1.682651 3.785587 139 130 37
-0.059686 -1.500315 3.362058 139 130 37
-0.034775 -2.118718 4.840275 139 130 37
-0.030969 -2.024829 4.627941 139 130 37
-0.051674 -1.312236 2.937328 140 131 38
-0.028768 -1.750103 3.992392 140 131 38
-0.042910 -1.305637 2.935948 140 131 38
-0.059896 -0.863313 1.879952 140 131 38
-0.038704 -1.211447 2.723551 139 130 37
0.062242 -2.955894 6.942338 139 130 37
-0.016619 -1.285840 2.931807 139 130 37
-0.012237 -1.282541 2.931117 137 128 35
-0.102913 -1.163260 2.523464 140 131 38
-0.090069 -3.237657 7.393961 139 130 37
-0.079714 -3.229860 7.392330 138 129 36
-0.064551 -3.671501 8.449185 137 128 35
-0.077694 -1.869163 4.214282 139 130 37
-0.037936 -3.832684 8.868691 139 130 37
-0.056442 -2.306220 5.270178 139 130 37
-0.046832 -2.389595 5.480513 140 131 38
-0.060491 -1.584375 3.576026 140 131 38
-0.055255 -1.580433 3.575202 141 132 39
-0.035257 -2.018433 4.631296 140 131 38
-0.022125 -2.189768 5.052925 141 132 39
-0.025464 -1.920447 4.417905 141 132 39
-0.015285 -2.003394 4.628150 140 131 38
-0.016808 -1.823318 4.204693 140 131 38
-0.010720 -1.818733 4.203734 139 130 37
0.069917 -3.207802 7.580614 139 130 37
-0.019441 -1.281630 2.934015 139 130 37
-0.049841 -0.760851 1.667711 138 129 36
-0.107994 -4.318589 9.944509 140 131 38
-0.096739 -3.227709 7.399179 139 130 37
-0.086878 -3.130083 7.185663 138 129 36
-0.071359 -3.749800 8.666961 136 127 34
-0.089054 -1.237512 2.734779 138 129 36
-0.072930 -1.405772 3.156166 140 131 38
-0.068263 -1.402258 3.155431 141 132 39
-0.036775 -2.100152 4.846177 140 131 38
-0.045103 -1.655420 3.787673 142 133 40
-0.026818 -1.822053 4.208720 141 132 39
-0.020730 -1.817468 4.207761 141 132 39
-0.014641 -1.812884 4.206802 139 130 37
0.018304 -2.329279 5.473393 139 130 37
0.030860 -2.410026 5.683378 139 130 37
0.165063 -4.563985 10.961322 139 130 37
-0.051564 -0.758281 1.669059 139 130 37
-0.116345 -4.125394 9.527211 140 131 38
-0.103277 -3.666607 8.464764 139 130 37
-0.100199 -1.150191 2.526106 138 129 36
-0.096386 -1.147320 2.525505 138 129 36
-0.095212 -0.877068 1.889087 139 130 37
-0.085268 -1.408316 3.159987 139 130 37
-0.079153 -1.493501 3.371102 139 130 37
-0.075935 -1.401289 3.158517 139 130 37
-0.073286 -1.309505 2.946022 140 131 38
-0.061999 -1.570373 3.580478 140 131 38
-0.067109 -1.215064 2.732972 140 131 38
-0.045787 -1.737745 4.002080 141 132 39
-0.039983 -1.733374 4.001166 140 131 38
-0.058256 -1.118609 2.519500 141 132 39
-0.024651 -1.811619 4.210829 141 132 39
-0.022571 -1.720263 3.998424 140 131 38
-0.046817 -1.109995 2.517699 140 131 38
0.021078 -2.315921 5.476093 138 129 36
0.126108 -4.032620 9.701105 138 129 36
-0.050816 -0.843639 1.882096 139 130 37
-0.026134 -1.184211 2.726519 139 130 37
-0.110722 -1.241980 2.741490 141 132 39
-0.110549 -3.476300 8.046265 140 131 38
-0.099213 -3.557142 8.256672 137 128 35
-0.098430 -1.232725 2.739554 140 131 38
-0.097118 -0.874225 1.890579 139 130 37
-0.090235 -1.226554 2.738263 138 129 36
-0.064993 -2.190706 5.068401 139 130 37
-0.046762 -2.713246 6.338683 140 131 38
-0.052659 -2.092040 4.854267 140 131 38
-0.079360 -0.860853 1.887782 140 131 38
-0.049526 -1.732168 4.005005 140 131 38
-0.043721 -1.727798 4.004091 139 130 37
-0.060712 -1.114945 2.521421 141 132 39
0.020998 -3.019735 7.176780 141 132 39
0.012372 -2.400585 5.692794 140 131 38
0.095152 -3.857679 9.287023 138 129 36
-0.055682 -0.843024 1.884053 138 129 36
-0.052722 -0.840796 1.883587 139 130 37
-0.013031 -1.436555 3.362681 139 130 37
-0.117734 -1.864103 4.230389 141 132 39
-0.110965 -1.681073 3.804710 141 132 39
-0.104999 -0.964847 2.105318 140 131 38
-0.100840 -1.317582 2.953889 141 132 39
-0.095432 -1.491444 3.377650 140 131 38
-0.092874 -1.222617 2.740328 139 130 37
-0.088777 -1.219532 2.739683 139 130 37
-0.081946 -1.392322 3.163220 139 130 37
-0.085535 -0.950190 2.102252 139 130 37
-0.082290 -0.947748 2.101741 139 130 37
-0.067947 -1.381781 3.161015 139 130 37
-0.038238 -2.249079 5.279403 139 130 37
-0.066981 -1.114153 2.523943 138 129 36
-0.063168 -1.111282 2.523343 141 132 39
-0.059354 -1.108411 2.522742 141 132 39
-0.036023 -1.446709 3.368294 140 131 38
-0.060548 -0.842409 1.886011 138 129 36
-0.057588 -0.840181 1.885544 138 129 36
-0.064188 -0.667217 1.461971 139 130 37
0.171157 -4.582478 11.191010 138 129 36
-0.115043 -1.764720 4.019995 143 134 41
-0.108283 -1.405407 3.169246 142 133 40
-0.103890 -0.870766 1.894028 142 133 40
-0.098621 -1.486687 3.380145 141 132 39
-0.087526 -2.363889 5.502609 140 131 38
-0.084225 -1.918625 4.439983 140 131 38
-0.087318 -1.212510 2.741102 139 130 37
-0.077350 -1.559226 3.589216 138 129 36
-0.073867 -1.468048 3.376247 138 129 36
-0.036330 -2.856673 6.769072 138 129 36
-0.077892 -0.939745 2.102354 138 129 36
-0.069436 -1.110490 2.525865 139 130 37
-0.065623 -1.107619 2.525264 141 132 39
0.005708 -2.470796 5.912768 140 131 38
0.006017 -2.293453 5.487877 138 129 36
-0.012061 -1.775732 4.216198 138 129 36
-0.005973 -1.771147 4.215239 139 130 37
0.000116 -1.766563 4.214280 137 128 35
-0.113129 -1.049733 2.321745 143 134 41
-0.110445 -1.224000 2.746393 142 133 40
-0.101809 -1.481931 3.382640 141 132 39
-0.093840 -2.092940 4.869134 140 131 38
-0.087614 -2.000108 4.655618 140 131 38
-0.088957 -1.295965 2.955545 139 130 37
-0.089713 -0.943957 2.105522 138 129 36
-0.086469 -0.941514 2.105011 138 129 36
-0.086932 -0.765574 1.680012 139 130 37
-0.084257 -0.763559 1.679591 139 130 37
-0.071892 -1.106826 2.527786 138 129 36
-0.078906 -0.759530 1.678749 140 131 38
-0.008043 -2.469059 5.918300 141 132 39
-0.024600 -1.864515 4.433158 141 132 39
-0.022071 -1.774467 4.220224 138 129 36
0.083112 -3.810730 9.304513 138 129 36
0.047480 -2.867972 6.972233 138 129 36
-0.008503 -1.676106 4.005552 138 129 36
-0.115402 -1.046342 2.323523 142 133 40
-0.112837 -2.272675 5.300219 141 132 39
-0.105617 -2.969104 7.000283 140 131 38
-0.096327 -2.786642 6.573519 139 130 37
-0.091902 -1.993712 4.658972 139 130 37
-0.089600 -1.114648 2.532110 140 131 38
-0.088559 -0.938397 2.106645 142 133 40
-0.085980 -0.760989 1.680939 141 132 39
-0.037729 -2.216120 5.288391 140 131 38
-0.016178 -2.638558 6.348247 140 131 38
0.039141 -3.912901 9.529286 141 132 39
-0.008443 -2.369534 5.709079 141 132 39
-0.069928 -0.748902 1.678411 139 130 37
-0.007727 -1.754863 4.220416 139 130 37
-0.132062 -1.752361 4.029683 142 133 40
-0.116601 -0.954823 2.112367 143 134 41
-0.120454 -1.743620 4.027855 140 131 38
-0.116666 -2.090056 4.878316 142 133 40
-0.108406 -1.559905 3.600428 141 132 39
-0.102199 -2.865059 6.790918 139 130 37
-0.097136 -0.940166 2.109302 139 130 37
-0.093892 -0.937723 2.108791 139 130 37
-0.084635 -1.367362 3.171156 139 130 37
-0.082388 -1.016383 2.319744 140 131 38
-0.047247 -2.037785 4.867384 140 131 38
-0.050804 -1.691176 4.016886 140 131 38
-0.024636 -2.282724 5.502116 141 132 39
-0.013647 -2.361772 5.713150 141 132 39
-0.033392 -1.678065 4.014144 139 130 37
-0.053926 -1.082273 2.528026 138 129 36
-0.054160 -0.995127 2.315298 139 130 37
-0.033305 -1.328712 3.163072 139 130 37
-0.163531 -3.332058 7.868796 142 133 40
-0.132508 -1.918128 4.457847 142 133 40
-0.126135 -1.913329 4.456843 141 132 39
-0.114952 -1.296533 2.964929 142 133 40
-0.111778 -1.554875 3.603066 141 132 39
-0.106543 -1.550933 3.602242 139 130 37
-0.097874 -1.196763 2.749361 139 130 37
-0.086621 -1.449022 3.386226 140 131 38
-0.082974 -1.359365 3.172772 140 131 38
-0.086249 -0.927278 2.108893 140 131 38
-0.038060 -2.976849 7.210400 139 130 37
0.046672 -4.651260 11.454635 141 132 39
-0.073039 -0.830420 1.893934 141 132 39
-0.050310 -1.334770 3.167628 139 130 37
-0.059961 -0.994394 2.317632 139 130 37
-0.056432 -0.991737 2.317076 140 131 38
-0.032163 -1.408016 3.377649 140 131 38
-0.165395 -3.058170 7.234506 142 133 40
-0.162577 -4.353540 10.428965 141 132 39
-0.136924 -3.209731 7.656009 142 133 40
-0.113978 -1.375964 3.179533 141 132 39
-0.109010 -1.285724 2.965757 139 130 37
-0.104560 -0.936375 2.113082 139 130 37
-0.098375 -1.883212 4.455036 138 129 36
-0.077267 -2.732313 6.581647 139 130 37
-0.046758 -4.352830 10.623718 140 131 38
-0.086934 -1.009603 2.323300 140 131 38
-0.044547 -2.967173 7.215474 139 130 37
-0.036450 -2.874577 7.001206 140 131 38
-0.056023 -1.764822 4.235373 140 131 38
-0.052477 -1.675653 4.021821 140 131 38
-0.046673 -1.671282 4.020907 141 132 39
-0.053315 -1.330286 3.169979 139 130 37
-0.069026 -0.823119 1.894493 139 130 37
-0.058705 -0.988347 2.318854 140 131 38
0.051879 -3.240564 8.052262 140 131 38
-0.168068 -2.873446 6.812764 141 132 39
-0.155321 -2.691672 6.384541 142 133 40
-0.154416 -3.207520 7.663046 143 134 41
-0.137455 -2.678219 6.381727 143 134 41
-0.116983 -1.371481 3.181884 142 133 40
-0.111832 -1.281514 2.967965 140 131 38
-0.106649 -0.933258 2.114717 139 130 37
-0.095547 -0.752722 1.686753 140 131 38
-0.089206 -1.006212 2.325078 140 131 38
-0.085678 -1.003556 2.324522 139 130 37
-0.056215 -1.670076 4.024746 138 129 36
-0.041678 -1.745219 4.235565 141 132 39
-0.070932 -0.820276 1.895984 140 131 38
-0.064475 -0.901502 2.108075 141 132 39
-0.049886 -1.148781 2.745101 139 130 37
-0.174187 -2.864317 6.817552 139 130 37
-0.162880 -2.770126 6.602549 142 133 40
-0.153662 -2.763185 6.601098 144 135 42
-0.144445 -2.756245 6.599646 142 133 40
-0.135228 -2.749304 6.598194 141 132 39
-0.122002 -2.225284 5.316777 140 131 38
-0.109889 -1.188039 2.756200 139 130 37
-0.100415 -0.666843 1.475374 140 131 38
-0.088974 -1.686352 4.032241 140 131 38
-0.091479 -1.002822 2.326856 141 132 39
-0.087950 -1.000165 2.326300 140 131 38
-0.086029 -0.913042 2.112775 140 131 38
-0.077109 -1.163356 2.751038 140 131 38
-0.056610 -1.576306 3.813922 140 131 38
-0.059326 -1.321320 3.174682 141 132 39
-0.043365 -1.480656 3.598613 141 132 39
