ply
format ascii 1.0
element vertex 1211
property float x
property float y
property float z
property uchar red
property uchar green
property uchar blue
end_header
3.146969 -0.166945 7.856827 211 208 191
1.778500 -1.023958 8.001195 232 229 222
0.590462 -0.248708 2.562808 234 231 224
1.053493 -0.481730 4.431475 229 226 219
1.793208 -0.891937 7.554480 230 227 220
0.867238 -0.364835 3.595731 230 227 220
1.267697 -0.579556 5.259744 232 229 222
2.711335 -0.265518 7.308909 226 222 211
1.957557 -0.108879 5.075227 228 225 216
1.567969 -0.069721 4.072478 221 218 209
1.497022 -0.057134 3.870064 215 213 200
2.486618 -0.113872 6.262062 210 207 192
2.143714 -1.304631 9.895701 229 226 219
1.680469 -0.954467 7.584390 230 227 220
1.017765 -0.498126 4.440896 231 228 221
0.599725 -0.238252 2.560260 233 230 223
1.542948 -0.745465 6.514257 228 225 218
0.668223 -0.252083 2.763322 230 227 220
1.214028 -0.545918 5.052551 233 230 223
2.552854 -0.238125 6.908287 225 221 210
2.272252 -0.126744 5.876424 228 225 216
2.199865 -0.115566 5.674402 225 222 213
3.423855 -0.188954 8.667769 219 217 205
1.817452 -0.073648 4.669770 215 213 200
4.436607 -0.224767 11.053486 210 207 192
0.932118 -0.488441 4.242292 230 227 220
0.723883 -0.329822 3.191109 230 227 220
0.773514 -0.356098 3.399210 230 227 220
0.827932 -0.379109 3.606031 229 226 219
1.488094 -0.770637 6.528721 229 226 219
1.003145 -0.439981 4.223295 230 227 220
1.105943 -0.490122 4.638551 231 228 221
1.160740 -0.512874 4.845271 232 229 222
1.067802 -0.456006 4.427377 232 229 222
0.725101 -0.268852 2.969407 232 229 222
0.728453 -0.266565 2.968511 232 229 222
0.580914 -0.186811 2.343845 232 229 222
1.807121 -0.132001 4.893759 225 222 213
1.582394 -0.104910 4.289739 226 223 214
1.510485 -0.093834 4.087596 227 224 215
1.955406 -0.090968 5.075473 224 221 212
2.122192 -0.097451 5.473615 221 218 209
3.657367 -0.192670 9.269144 217 215 203
3.347049 -0.163838 8.466641 214 212 199
3.115436 -0.141447 7.864463 212 210 197
2.719527 -0.110873 6.863477 209 205 193
0.551857 -0.202928 2.351554 231 228 221
0.761487 -0.298748 3.180959 231 228 221
0.814084 -0.322573 3.388260 231 228 221
0.670274 -0.241557 2.762619 231 228 221
0.722871 -0.265383 2.969919 231 228 221
2.682045 -0.182623 7.094641 227 224 215
1.627071 -0.066448 4.277653 226 223 214
2.044327 -0.080320 5.272893 217 215 203
1.970600 -0.070911 5.071244 214 212 199
3.189243 -0.135131 8.065824 211 209 196
2.956767 -0.114609 7.463898 207 203 191
0.616134 -0.273933 2.777022 230 227 220
0.663662 -0.300790 2.985671 230 227 220
2.732480 -1.438506 11.950865 231 228 221
1.646215 -0.104689 4.493759 224 220 209
2.456487 -0.085417 6.269288 210 208 195
2.383812 -0.075718 6.067365 207 204 189
1.333171 -0.721864 6.126825 229 226 219
1.135260 -0.562609 5.072989 230 227 220
0.543561 -0.201171 2.353647 231 228 221
1.261843 -0.064245 3.489653 223 219 208
0.830014 -0.005730 2.277029 224 222 210
1.783858 -0.061228 4.678155 219 217 205
1.396460 -0.031256 3.675001 212 210 197
2.539955 -0.075073 6.468109 206 203 188
0.889182 -0.429092 4.031916 230 227 220
1.163621 -0.592427 5.286593 230 227 220
0.999933 -0.470388 4.444987 231 228 221
0.774844 -0.331812 3.398457 231 228 221
0.747352 0.000010 2.077729 228 224 213
0.749556 0.001514 2.077140 223 221 209
1.712116 -0.042911 4.475847 210 208 195
1.717763 -0.039058 4.474336 209 207 192
1.562938 -0.027832 4.073053 206 205 187
0.532774 -0.201113 2.356406 229 226 219
0.818131 -0.354436 3.608120 230 227 220
2.291925 -0.160935 6.312679 222 218 209
1.559203 -0.080829 4.295264 221 217 206
4.256354 -0.270714 11.320744 223 219 208
1.602085 -0.051571 4.283794 228 224 213
2.860624 -0.120940 7.488607 226 222 211
2.398912 -0.087940 6.284063 221 219 207
1.065884 -0.011392 2.877834 219 217 205
0.990051 -0.005128 2.676778 214 212 199
1.311001 -0.018161 3.476292 210 208 195
1.639608 -0.025971 4.273758 204 202 187
1.725300 -0.025507 4.472177 202 199 182
0.497576 -0.163844 2.144425 230 227 220
4.094113 -0.300899 11.142417 222 218 207
3.657649 -0.253236 9.931163 221 217 206
1.555637 -0.075282 4.296082 220 216 205
1.131444 -0.019246 3.081546 227 223 212
2.854004 -0.110640 7.490126 225 221 210
2.863955 -0.103851 7.487464 221 219 207
4.290626 -0.166822 11.089855 217 215 203
0.753235 0.010587 2.076044 209 207 194
1.312411 -0.010927 3.475808 206 204 189
1.396478 -0.011146 3.674655 202 200 185
1.721543 -0.019662 4.473039 200 197 180
0.770935 -0.316945 3.399205 230 227 220
2.214419 -0.132162 6.111668 222 218 207
3.348448 -0.215661 9.128226 221 217 206
2.060883 -0.065472 5.488759 225 221 210
1.756197 -0.044759 4.684953 223 219 208
4.108996 -0.153942 10.695403 220 218 206
3.102833 -0.097498 8.087295 216 214 202
1.064776 -0.002167 2.877961 211 209 196
1.068127 0.000120 2.877065 208 206 193
1.388985 -0.009559 3.676545 205 203 188
0.221353 -0.345743 2.218195 146 137 46
0.244195 -0.443600 2.654722 146 136 47
0.241348 -0.388821 2.434165 145 135 46
0.322455 -0.560367 3.297743 157 148 81
0.354490 -1.096031 5.502189 144 135 44
0.389662 -1.240916 6.156713 145 136 45
0.241242 -0.493209 2.876674 146 137 46
0.633390 -2.460318 11.623921 144 137 47
0.327356 -0.602055 3.517551 151 142 75
0.324891 -0.547870 3.296907 189 182 156
0.585876 -2.249326 10.751077 143 136 46
0.221362 -0.335892 2.218026 142 135 45
0.254527 -0.479582 2.873043 143 136 46
0.253813 -0.369190 2.430642 145 138 50
0.291304 -0.454490 2.863206 177 168 137
0.539890 -2.040710 9.877883 143 136 46
0.222099 -0.332107 2.217773 141 134 44
0.252156 -0.366613 2.431022 144 138 52
0.292330 -0.449227 2.862855 194 188 164
0.295395 -0.447136 2.862035 201 198 183
0.262708 -0.464874 2.870700 142 135 47
0.303074 -0.546503 3.302467 148 141 73
0.262953 -0.355537 2.428071 194 192 171
0.386740 -0.971421 5.271465 145 135 46
0.301206 -0.596518 3.524148 142 135 45
0.281620 -0.501566 3.086839 144 138 54
0.760063 -2.070653 10.703470 188 182 158
0.666869 -2.544139 12.498195 141 135 41
0.222108 -0.322257 2.217603 142 136 42
0.388822 -0.960738 5.270751 141 135 49
0.248509 -0.567479 3.316785 145 134 42
0.640740 -2.538605 12.504787 145 136 43
0.379678 -1.064321 5.715559 142 136 40
0.527398 -1.496567 7.888646 139 135 62
0.262744 -0.397857 2.649198 164 158 122
0.213979 -0.374117 2.440918 144 133 41
0.352178 -0.755711 4.395227 155 151 114
0.456698 -1.001655 5.694787 202 199 192
0.429769 -1.062360 5.923063 156 153 122
0.330169 -0.658276 3.958495 165 163 142
0.394525 -0.824162 4.826263 195 191 188
0.400172 -0.820309 4.824752 200 197 190
0.421181 -1.265762 6.810133 141 134 43
0.379706 -1.033951 5.715036 141 134 44
0.458096 -1.344618 7.242735 143 133 46
0.267118 -0.486508 3.090293 142 135 57
0.229467 -0.304111 2.215412 146 143 98
0.378244 -0.774840 4.609237 192 191 186
0.614192 -1.550247 8.528412 198 195 188
0.433686 -1.296571 7.027811 140 133 43
0.264888 -0.483040 3.090805 142 134 61
0.669682 -1.909471 10.283150 176 174 161
0.754777 -2.160979 11.587775 183 184 170
0.682991 -1.848796 10.058360 192 192 182
0.569331 -1.410401 7.876453 196 193 184
0.232766 -0.551133 3.320535 143 132 42
0.271148 -0.576113 3.531493 138 133 41
0.255590 -0.433226 2.871984 145 138 86
0.601276 -1.834720 9.858675 150 146 109
0.302553 -0.554686 3.523093 176 172 161
0.286121 -0.463563 3.085041 194 190 181
0.513187 -1.229649 7.006331 195 191 182
0.399618 -1.091494 6.151627 143 133 71
0.593128 -1.822045 9.860545 150 146 111
0.248878 -0.382503 2.652485 158 156 135
0.728521 -2.237069 12.036494 168 164 152
0.299941 -0.550623 3.523692 177 173 162
0.570708 -1.482163 8.318028 192 188 179
0.556471 -1.390396 7.879403 194 189 183
0.238445 -0.586736 3.540041 144 133 41
0.512504 -1.556943 8.554546 145 137 88
0.533355 -1.593030 8.770178 150 145 113
0.238909 -0.334856 2.433872 168 164 152
0.487490 -1.272133 7.233982 177 173 162
0.328700 -0.625782 3.958319 190 186 177
0.537995 -1.338301 7.662892 192 187 181
0.222452 -0.492032 3.101816 143 132 40
0.280008 -0.801961 4.634834 145 135 40
0.307709 -0.633405 3.963820 160 155 136
0.408581 -1.013551 5.927655 169 165 153
0.437653 -1.093487 6.362283 176 172 160
0.321207 -0.624195 3.960209 183 179 168
0.235359 -0.283684 2.213557 191 186 180
0.298229 -0.979381 5.514603 146 133 41
0.198630 -0.305462 2.223325 144 133 41
0.263108 -0.508761 3.312052 143 131 79
0.276403 -0.549148 3.529690 144 135 94
0.280329 -0.546470 3.528640 149 142 114
0.601392 -1.860621 10.299794 160 155 136
0.270498 -0.454261 3.088881 176 172 160
0.229485 -0.284410 2.215072 184 180 169
0.782146 -2.231879 12.463393 191 186 180
0.355471 -1.322885 7.268625 144 133 43
0.482518 -1.432328 8.119393 147 141 115
0.572784 -1.762989 9.864747 158 155 138
0.703410 -2.164176 12.041681 176 172 160
0.700082 -2.019354 11.379010 187 184 175
0.737285 -2.092033 11.811433 190 185 179
0.262618 -0.741280 4.417899 143 132 42
0.456774 -1.337868 7.683667 144 140 115
0.495697 -1.457123 8.336796 157 154 139
0.617424 -1.908713 10.737217 166 162 151
0.290808 -0.527631 3.525639 182 178 169
0.393700 -0.894864 5.488738 185 182 175
0.913545 0.065876 2.695148 200 198 186
0.916609 0.067967 2.694328 198 196 184
0.847079 0.066996 2.491782 197 195 183
0.922739 0.072149 2.692688 195 193 181
3.706237 0.205498 10.351645 193 191 179
0.781956 0.069031 2.288056 191 189 176
0.784447 0.070731 2.287390 190 188 175
1.897390 0.133053 5.306866 188 185 170
1.829868 0.133452 5.103783 185 182 165
0.791920 0.075829 2.285391 184 179 160
0.794411 0.077529 2.284725 180 175 156
0.796901 0.079228 2.284059 177 172 153
0.723927 0.075907 2.082434 169 164 144
0.732743 0.081922 2.080076 208 197 177
0.734947 0.083426 2.079486 181 174 146
0.737151 0.084930 2.078897 161 156 124
4.148187 0.367628 10.896868 148 144 107
4.085256 0.371160 10.692556 141 137 92
0.983336 0.072016 2.897539 200 196 187
0.986688 0.074303 2.896643 198 196 183
0.990040 0.076590 2.895746 195 193 180
1.356849 0.096653 3.903318 194 192 179
0.850786 0.073661 2.490720 192 190 175
0.853564 0.075556 2.489977 190 188 173
0.856342 0.077452 2.489234 189 186 169
1.449834 0.114054 4.099584 187 184 167
1.751412 0.135653 4.903466 185 182 165
1.906459 0.149357 5.304268 184 179 160
1.390354 0.119513 3.894356 178 175 156
2.294984 0.184238 6.306032 174 171 152
1.776296 0.152631 4.896810 166 164 143
1.954025 0.181810 5.291546 208 197 175
0.733481 0.085707 2.079823 180 173 145
0.735685 0.087211 2.079233 157 152 122
0.737889 0.088714 2.078644 149 145 110
2.679330 0.262307 7.087776 139 134 94
0.694547 0.062425 2.090180 198 194 185
0.984458 0.077772 2.897155 198 195 180
0.987810 0.080058 2.896258 196 193 176
1.426165 0.105459 4.105786 195 192 175
3.032563 0.197979 8.540964 193 190 171
0.924791 0.082675 2.691985 189 186 167
1.441385 0.115844 4.101715 188 185 166
1.299162 0.110034 3.697497 187 184 165
0.862827 0.086012 2.487429 187 184 165
1.610697 0.140135 4.498688 182 179 160
1.317160 0.122314 3.692683 177 174 155
0.720995 0.080469 2.083106 165 163 142
2.406889 0.227227 6.497022 205 194 172
0.732015 0.087988 2.080159 177 170 144
2.193508 0.218482 5.890707 156 151 122
1.738614 0.181797 4.685603 147 142 112
1.667170 0.178665 4.483583 140 135 97
0.693081 0.064706 2.090517 196 192 181
0.695285 0.066210 2.089927 196 193 178
0.697489 0.067713 2.089338 194 191 174
1.422790 0.110710 4.106561 193 190 173
1.355266 0.109826 3.903499 191 188 169
0.922752 0.085847 2.692453 188 185 166
1.291669 0.111621 3.699388 187 184 165
0.708509 0.075232 2.086390 185 182 165
0.710713 0.076736 2.085801 183 180 163
1.231136 0.115507 3.494456 180 177 158
0.938075 0.096302 2.688354 176 173 154
1.836403 0.166979 5.101541 174 171 152
1.992695 0.183242 5.501981 162 160 139
1.184584 0.128932 3.285786 201 190 168
0.806875 0.097159 2.281202 173 166 138
0.809366 0.098859 2.280536 155 150 121
0.811857 0.100558 2.279870 147 140 111
2.049351 0.221897 5.486827 142 134 97
0.691615 0.066987 2.090853 195 191 179
0.693819 0.068491 2.090264 193 191 176
0.696023 0.069994 2.089674 192 189 174
0.698227 0.071498 2.089085 191 188 171
0.709247 0.079017 2.086137 183 180 165
0.859131 0.091762 2.488277 178 175 158
1.010164 0.105291 2.890109 172 169 150
1.236758 0.125615 3.492846 172 169 150
1.539776 0.153322 4.296256 160 158 137
1.712915 0.181934 4.692176 196 185 163
1.642714 0.178796 4.489838 168 163 133
1.113401 0.130968 3.083611 155 150 120
2.881366 0.307761 7.696370 146 139 110
2.429623 0.268099 6.490510 140 130 94
0.181034 -0.278090 2.227363 143 134 57
0.259288 -0.889673 5.523043 161 151 89
0.690149 0.069268 2.091190 184 181 166
3.047033 0.214378 8.757337 184 180 168
0.694556 0.072275 2.090011 186 183 168
0.696760 0.073779 2.089421 184 181 166
0.786125 0.090419 2.286626 176 173 156
1.530849 0.155213 4.298508 174 171 152
0.798579 0.098916 2.283295 210 204 180
0.801070 0.100616 2.282629 188 182 158
1.031396 0.124767 2.884346 166 162 133
1.339676 0.157774 3.686320 154 149 119
2.185884 0.247476 5.892165 145 139 107
2.654375 0.301128 7.093502 139 130 91
0.331108 -1.621261 9.483471 149 140 65
0.560243 -2.035684 12.296485 163 159 147
0.575646 -2.025175 12.292365 167 163 152
0.270689 -0.520970 3.751028 174 170 161
0.268025 -0.434979 3.309540 184 179 175
0.412280 -0.951218 6.366358 183 178 174
3.523727 0.249665 10.177241 177 174 159
3.252756 0.240405 9.365317 167 164 149
3.050940 0.234423 8.755997 165 162 147
0.786958 0.094696 2.286340 169 166 147
0.721742 0.094105 2.082684 211 203 180
0.723946 0.095608 2.082094 185 177 154
1.332183 0.159361 3.688210 166 162 133
1.792929 0.210292 4.891575 153 148 118
1.264854 0.157328 3.485118 144 138 106
2.265061 0.268991 6.091894 139 130 89
0.425525 -1.974235 11.668850 233 230 215
0.243407 -0.359403 2.873847 181 176 172
0.217773 -0.246461 2.217425 182 177 173
0.343862 -0.682159 4.836814 180 175 169
3.585310 0.268574 10.381516 142 140 125
0.689420 0.075333 2.091273 128 126 111
0.945243 0.119445 2.686127 209 201 178
0.722479 0.097889 2.082431 182 174 151
0.724683 0.099393 2.081841 165 160 131
0.726887 0.100897 2.081252 152 147 115
0.729091 0.102400 2.080662 143 137 103
0.731295 0.103904 2.080073 137 130 86
0.214533 -0.546740 3.765835 194 191 156
0.261041 -0.773308 5.079909 224 218 206
0.277985 -0.718698 4.854291 153 145 134
0.255313 -0.561967 3.976013 160 154 142
0.279619 -0.631483 4.411683 168 164 153
0.291309 -0.537407 3.966385 180 175 171
0.228173 -0.279134 2.435673 179 174 170
0.509241 -1.292765 8.550892 179 174 168
0.758735 0.082857 2.293763 80 81 65
1.466794 0.178501 4.094149 205 197 174
0.721013 0.100170 2.082767 180 169 147
0.723217 0.101674 2.082178 161 156 126
0.725421 0.103178 2.081588 150 144 112
0.727625 0.104681 2.080999 142 136 100
0.729829 0.106185 2.080409 136 129 83
0.207137 -0.502892 3.546628 200 197 164
0.346849 -1.132155 7.267591 153 144 135
0.460138 -1.310597 8.563760 176 171 165
0.443971 -1.193759 7.904849 178 173 167
0.398529 -0.969027 6.590533 178 173 167
0.605370 -1.722981 11.177855 177 172 166
0.551030 -1.461696 9.644840 177 172 166
0.791950 0.109228 2.284816 204 196 173
0.719547 0.102451 2.083104 178 168 143
0.721751 0.103955 2.082514 157 150 121
0.723955 0.105459 2.081925 148 142 108
0.726159 0.106962 2.081335 142 137 99
0.728363 0.108466 2.080746 136 130 82
0.192845 -0.464602 3.329280 157 152 88
0.305781 -1.400241 8.604779 208 205 172
0.194383 -0.379162 2.886727 233 232 212
0.328170 -1.047401 6.830222 154 145 136
0.349795 -1.117037 7.266580 162 153 144
0.302720 -0.811592 5.510603 164 157 147
0.301956 -0.769918 5.289736 168 161 151
0.527382 -1.839783 11.640503 170 166 157
0.345781 -0.908799 6.162298 171 167 158
0.483273 -1.490119 9.662661 173 169 160
0.310002 -0.680037 4.845442 175 170 164
0.298236 -0.603674 4.406447 177 172 166
0.285322 -0.528094 3.967759 177 172 166
0.299102 -0.560887 4.185144 176 171 165
0.552641 -1.484986 9.865178 176 171 165
0.790293 0.111806 2.285196 198 190 167
1.241006 0.166145 3.491071 175 165 140
1.245218 0.169019 3.489944 157 150 121
0.722488 0.107740 2.082261 148 142 108
0.724692 0.109243 2.081672 141 136 96
0.726896 0.110747 2.081082 133 130 79
0.280404 -1.318347 8.169173 184 180 133
0.297814 -0.888786 5.953878 155 146 137
0.285375 -0.771968 5.294014 161 152 143
0.284802 -0.730591 5.073103 163 156 146
0.340303 -0.985102 6.605705 165 161 150
0.274567 -0.612269 4.412649 168 164 153
0.432737 -1.339719 8.791620 170 166 157
0.491200 -1.550440 10.102366 172 168 159
0.314473 -0.710347 5.065167 173 168 162
0.252282 -0.418632 3.313291 174 169 163
0.291131 -0.559199 4.187155 174 169 163
0.305007 -0.591500 4.404507 174 169 163
2.351173 0.261568 6.731049 193 194 176
0.786145 0.112684 2.286243 212 206 184
0.788636 0.114384 2.285577 192 184 161
0.791127 0.116083 2.284910 172 165 137
0.793618 0.117783 2.284244 158 151 122
0.721022 0.110021 2.082597 148 142 108
0.723226 0.111524 2.082008 140 135 95
0.725430 0.113028 2.081418 132 129 78
0.173860 -1.004154 6.207910 144 135 42
0.161095 -0.434089 3.116532 145 136 43
0.232810 -0.509182 3.760520 155 146 137
0.243339 -0.543339 3.978760 161 152 143
0.245448 -0.500560 3.757140 162 158 147
0.278369 -0.643463 4.632561 165 161 150
0.246409 -0.458563 3.535826 167 163 154
0.242584 -0.419831 3.315792 168 164 155
0.463244 -1.385488 9.225300 170 165 159
0.233212 -0.343544 2.876186 171 166 160
0.244888 -0.376918 3.094120 171 166 160
0.381720 -0.903677 6.373370 171 166 160
0.407747 -0.968601 6.808521 171 166 160
3.955648 0.501213 10.943865 207 201 179
3.674338 0.474645 10.134881 182 176 152
0.789470 0.118661 2.285291 167 160 132
0.791961 0.120361 2.284624 158 152 120
0.794452 0.122060 2.283958 147 141 107
0.721760 0.113805 2.082344 139 134 94
0.723964 0.115309 2.081755 131 128 77
0.171508 -0.258339 2.229465 195 189 153
0.292433 -1.444163 9.049650 225 220 200
0.283222 -0.795826 5.515324 159 153 141
0.235946 -0.459857 3.538525 160 156 144
0.225900 -0.384883 3.099114 163 159 148
0.534719 -1.892564 12.300585 164 160 151
0.270403 -0.559089 4.192457 164 160 151
0.463515 -1.409264 9.445989 165 162 155
0.515858 -1.578121 10.537235 167 164 159
0.419495 -1.111988 7.689368 168 163 157
2.727916 0.340258 7.735082 184 182 167
1.069781 0.149965 3.094450 178 177 159
2.915984 0.386745 8.126878 196 191 171
2.779108 0.375185 7.721390 175 169 143
0.787813 0.121239 2.285671 160 155 125
0.790303 0.122939 2.285005 155 150 118
0.792794 0.124638 2.284338 147 141 107
0.795285 0.126338 2.283672 141 133 94
0.797776 0.128037 2.283006 132 126 76
0.215637 -0.953708 6.196363 159 152 84
0.228353 -0.540166 3.982541 138 134 123
0.193321 -0.280661 2.444617 145 141 130
0.223188 -0.422230 3.320796 155 151 140
0.383024 -1.284856 8.583054 158 154 143
0.278031 -0.668218 4.853422 161 157 148
0.262432 -0.557401 4.194468 159 155 146
0.274588 -0.589594 4.412259 162 157 151
0.763737 0.108522 2.292047 187 185 170
3.528901 0.456644 9.952046 181 180 162
0.705603 0.109345 2.086554 180 177 158
4.156014 0.560617 11.552649 179 174 152
3.803439 0.522495 10.541742 169 163 137
3.595875 0.502338 9.934133 157 152 122
3.386589 0.481007 9.326984 154 149 119
3.250095 0.468853 8.921408 146 140 106
3.112454 0.455916 8.516139 142 134 95
3.499279 0.517406 9.517885 135 127 78
0.167812 -0.414535 3.114481 145 135 46
0.189173 -0.279783 2.445663 134 132 120
0.197120 -0.314420 2.664572 140 137 128
0.199898 -0.312525 2.663829 141 139 127
0.275040 -0.741969 5.296148 141 139 127
0.201627 -0.271285 2.442332 151 148 139
0.342994 -0.935962 6.604182 157 154 147
0.336007 -0.860611 6.163981 159 156 147
0.762080 0.111100 2.292427 187 186 168
0.764571 0.112799 2.291761 185 184 164
0.699729 0.108619 2.088070 177 176 156
2.952574 0.403846 8.337579 172 171 151
0.704137 0.111626 2.086891 177 175 154
2.462546 0.349926 6.921404 172 170 145
3.426645 0.486938 9.536989 167 163 134
3.144469 0.454653 8.728323 156 151 119
3.082106 0.452164 8.523968 154 149 119
3.836722 0.566428 10.532479 147 141 109
4.149417 0.619536 11.332981 141 133 94
0.944255 0.155275 2.685771 133 125 76
0.166825 -0.370586 2.893633 148 139 64
0.197473 -0.349676 2.885435 118 116 104
0.247928 -0.671941 4.861188 115 113 101
0.225813 -0.488869 3.761965 115 113 101
0.230025 -0.485994 3.760839 115 113 101
0.289376 -0.802190 5.734212 116 114 102
0.193557 -0.233451 2.223400 127 125 113
0.269464 -0.617615 4.634400 138 135 126
0.267837 -0.579093 4.413808 150 147 138
0.220273 -0.294488 2.658309 165 161 149
0.214915 -0.258510 2.438715 170 166 154
0.385846 -0.934532 6.813547 175 169 157
0.765405 0.117077 2.291475 180 181 163
0.767896 0.118776 2.290809 178 179 161
0.698263 0.110900 2.088406 175 176 158
3.332310 0.481296 9.340868 169 167 142
2.612131 0.386255 7.323219 163 159 130
2.474679 0.371739 6.917929 156 153 122
2.336080 0.356440 6.512945 152 147 117
2.789389 0.427930 7.717863 147 141 109
3.246141 0.501769 8.921861 139 131 92
3.033983 0.475915 8.315524 131 123 74
0.200334 -1.558514 9.736221 143 134 43
0.269368 -1.040954 7.065513 155 151 142
0.291387 -1.143546 7.722685 114 112 100
0.181071 -0.238689 2.226684 107 105 92
0.244171 -0.666096 4.862050 101 99 87
0.303435 -1.017711 7.056401 96 94 82
0.367952 -1.287331 8.807307 90 88 76
0.403654 -1.419792 9.681839 93 91 78
0.448162 -1.585451 10.775036 113 111 98
0.230480 -0.401002 3.318570 131 129 117
0.532567 -1.763092 12.078582 154 151 136
0.218424 -0.291613 2.658733 159 156 141
0.694593 0.111677 2.089332 177 178 162
0.696797 0.113181 2.088743 177 176 158
0.699001 0.114684 2.088153 172 171 151
0.701205 0.116188 2.087564 173 172 151
0.703409 0.117692 2.086974 169 167 142
2.971103 0.449538 8.332062 164 160 133
2.835468 0.435407 7.926300 157 153 124
2.698685 0.420493 7.520845 152 147 117
2.634695 0.416039 7.316940 145 139 107
2.124763 0.342558 5.906189 138 130 91
2.057903 0.336146 5.703052 130 122 73
0.248400 -1.895689 11.933192 171 164 109
0.219505 -1.178627 7.741674 197 193 158
0.236647 -1.283264 8.400128 224 221 202
0.174909 -0.317167 2.670302 228 228 218
0.227495 -0.707843 5.087380 146 142 133
0.358881 -1.626422 10.798577 99 97 84
0.199440 -0.222874 2.221715 133 131 116
0.463337 -1.283710 9.223547 174 171 154
1.219769 0.163053 3.716911 198 196 183
1.155396 0.157911 3.513116 197 195 183
1.159609 0.160785 3.511989 196 194 182
0.693126 0.113958 2.089668 177 176 158
0.695330 0.115462 2.089079 176 175 157
0.697534 0.116965 2.088489 172 171 151
0.699738 0.118469 2.087900 171 169 148
0.701942 0.119973 2.087310 167 165 140
0.704146 0.121476 2.086721 163 159 132
0.706350 0.122980 2.086131 158 154 125
3.573624 0.566929 9.938729 153 148 118
3.365768 0.541447 9.331285 145 139 105
2.341781 0.385690 6.510989 136 128 89
2.275973 0.379569 6.307578 129 121 72
0.211413 -1.592042 10.174664 147 138 69
0.236711 -1.843235 11.714938 175 168 116
0.181610 -0.615263 4.436486 201 196 164
0.225830 -0.470041 3.761641 155 152 143
0.236554 -0.386023 3.316761 120 119 101
1.156806 0.165145 3.512632 196 194 181
1.161019 0.168019 3.511506 193 191 178
1.373858 0.198183 4.117595 190 188 173
0.693864 0.117743 2.089415 176 175 155
0.696068 0.119246 2.088826 170 169 148
0.698272 0.120750 2.088236 169 167 144
0.700476 0.122254 2.087647 163 161 136
0.702680 0.123757 2.087057 159 155 128
0.704884 0.125261 2.086468 155 151 122
0.707088 0.126765 2.085878 152 147 117
0.709292 0.128269 2.085289 144 138 104
3.000731 0.502804 8.323576 136 128 89
2.863564 0.485918 7.918252 128 120 71
0.110696 -1.907561 11.748276 146 135 43
0.126742 -1.744919 10.859989 147 136 46
0.128345 -0.673993 4.671467 146 135 43
0.157785 -0.391435 3.116654 147 140 70
0.159302 -0.277911 2.453274 193 188 159
0.161793 -0.276212 2.452608 219 218 200
0.191914 -0.705614 5.096447 227 227 215
0.206242 -0.395869 3.324684 170 168 156
0.220225 -0.461321 3.762927 178 176 164
0.371827 -1.370280 9.689142 186 183 174
0.240141 -0.522725 4.199582 195 192 183
0.274993 -0.648930 5.074226 215 212 207
0.267714 -0.578905 4.634190 185 182 175
0.157645 -0.275333 2.453655 167 163 134
0.182032 -0.703521 5.098940 197 196 178
0.251313 -1.768316 11.709929 204 204 192
0.300654 -0.956207 7.056068 175 172 163
0.218376 -0.382173 3.321347 192 189 184
0.118697 -1.397446 9.093311 145 134 45
0.176450 -0.661852 4.879306 152 151 133
0.180177 -0.622668 4.657333 163 163 151
0.168442 -0.264258 2.450704 152 149 140
0.243888 -0.982257 7.071036 151 148 139
0.269438 -0.964825 7.064202 165 163 151
0.203601 -0.350195 3.104230 172 169 160
0.206953 -0.347908 3.103334 176 173 166
0.326476 -0.962550 7.269923 185 181 178
0.254357 -0.535415 4.416515 196 192 189
0.383154 -1.143730 8.580623 203 199 196
0.124956 -0.797220 5.555845 144 133 44
0.180515 -1.447387 9.739404 155 147 98
0.222399 -0.803166 5.971721 146 146 136
0.229481 -0.798334 5.969826 157 154 145
0.232825 -0.759838 5.747962 162 159 150
0.267007 -0.845159 6.401728 168 165 156
0.235574 -0.576890 4.642380 172 169 162
0.251755 -0.602065 4.859021 173 170 165
0.151709 -0.232470 2.234091 195 191 164
0.214114 -0.619339 4.868946 160 157 148
0.203640 -0.268613 2.662126 181 177 176
0.096047 -0.939005 6.447068 145 134 42
0.126670 -0.918111 6.438877 143 137 43
0.146435 -0.338867 2.898311 174 168 110
0.160934 -0.505774 3.999208 230 227 208
0.244523 -0.554823 4.639715 173 170 163
0.152497 -0.924024 6.652723 208 203 171
0.216097 -0.705968 5.530973 161 158 149
0.118713 -0.383160 3.126511 144 133 41
0.146580 -0.709202 5.328462 212 208 181
0.108729 -0.657608 4.896562 144 135 44
0.123928 -1.839979 12.625158 180 177 134
0.098641 -0.891641 6.445599 139 134 42
0.114052 -1.789705 12.406477 182 179 138
0.177075 -0.703522 5.540917 140 136 125
0.159805 -0.210539 2.231647 148 145 136
0.215047 -0.946823 7.298168 155 152 143
0.275710 -1.578455 11.700460 160 157 148
0.195473 -0.388110 3.547662 171 167 164
0.251759 -0.787172 6.404645 171 167 164
0.164302 -0.636100 5.102331 158 155 138
0.183877 -0.788863 6.201689 144 141 134
0.193074 -0.815812 6.420147 149 146 137
0.285956 -1.616261 12.139189 164 161 154
0.182034 -0.358211 3.330239 164 161 156
0.324205 -1.523716 11.687122 171 167 164
0.078153 -1.768331 12.415299 160 158 107
0.158801 -0.565424 4.661829 153 150 133
0.189777 -1.036240 7.967215 145 142 135
0.199441 -1.029646 7.964630 149 146 137
0.170125 -0.328122 3.112421 160 157 148
0.254069 -0.959577 7.729108 169 166 161
0.014142 -0.398253 4.034942 147 137 39
-0.053690 -0.709926 6.701844 144 136 71
-0.045747 -0.704507 6.699720 161 156 116
-0.044383 -0.725693 6.920085 202 197 175
0.048920 -0.396641 4.246370 217 211 195
-0.011464 -0.703233 6.911280 203 197 183
-0.013522 -0.748869 7.353290 188 182 168
-0.009575 -0.768292 7.572965 145 139 125
0.026589 -0.404750 4.252221 162 158 121
-0.070572 -0.861441 8.251218 218 212 196
-0.019260 -0.674610 6.692434 212 206 192
-0.011317 -0.669191 6.690310 202 196 182
-0.014044 -0.714429 7.132485 183 177 163
0.029807 -0.532688 5.575697 140 134 122
0.074141 -0.350617 4.018780 143 136 126
0.088631 -0.163939 2.249067 163 158 126
0.044151 -0.364380 4.026688 219 213 197
0.048650 -0.361310 4.025484 211 205 191
-0.125143 -0.723200 6.720353 146 135 43
-0.126647 -0.745060 6.941463 147 137 40
0.055621 -0.224848 2.699257 148 139 38
-0.030917 -0.554739 5.591610 151 145 87
0.087165 -0.161658 2.249404 171 166 136
0.074044 -0.233113 2.915037 217 211 195
-0.153964 -1.201221 11.583641 201 195 181
0.068067 -0.171407 2.254456 145 134 42
-0.123892 -0.730928 6.940518 145 136 33
0.076883 -0.165392 2.252098 146 136 39
-0.124276 -0.955669 9.368331 210 204 188
-0.145297 -1.072047 10.477458 206 198 185
-0.343253 -1.347859 12.295630 144 135 32
-0.009188 -0.420635 4.482000 144 132 46
0.081394 -0.179013 2.471529 223 220 203
-0.138810 -0.968613 9.592624 211 205 189
-0.087104 -0.813455 8.254632 205 197 184
-0.045225 -0.684982 7.139963 196 189 173
-0.048906 -0.727453 7.582334 161 155 141
-0.057249 -0.793086 8.246647 124 118 106
-0.096704 -1.099724 11.346911 142 138 129
-0.089375 -0.761083 7.813615 217 211 197
-0.045682 -0.633508 6.698497 210 202 189
-0.037739 -0.628088 6.696372 199 192 176
-0.042375 -0.670357 7.138985 157 151 137
-0.051865 -0.735490 7.803583 128 122 110
0.086375 -0.250116 3.352879 147 144 135
-0.036886 -0.558304 6.033906 217 211 197
-0.022750 -0.529534 5.809446 211 203 190
-0.022722 -0.548640 6.030117 198 190 177
-0.035081 -0.614449 6.695460 157 151 137
0.768328 0.105830 4.494460 222 219 210
1.596622 0.250195 9.127857 230 227 218
1.119783 0.192616 6.165890 232 229 220
-0.358196 -1.234441 11.636464 148 138 40
-0.255493 -0.996084 9.622948 146 136 39
-0.281983 -1.088950 10.512720 144 133 44
-0.025223 -0.483707 5.368591 217 213 201
-0.026534 -0.503300 5.589614 214 208 194
-0.020026 -0.498860 5.587873 211 203 190
-0.020476 -0.517865 5.808665 193 185 172
-0.020352 -0.536479 6.029304 148 140 127
1.528685 0.202525 9.366405 210 207 198
0.435112 0.073448 2.376731 217 214 205
1.048843 0.174312 5.963998 221 218 209
1.375798 0.229102 7.862594 221 218 209
-0.336765 -1.143781 10.968378 148 138 41
-0.233204 -0.908684 8.954697 147 137 40
0.069784 -0.172100 2.474383 205 198 179
-0.277665 -1.213085 12.276558 215 211 199
-0.016920 -0.468780 5.366213 211 203 192
-0.032145 -0.533981 6.032279 194 186 173
0.022971 -0.368479 4.472885 144 136 123
0.726452 0.074949 4.726054 219 216 207
0.559418 0.088883 3.226078 228 225 216
1.190497 0.172304 7.249911 222 219 210
0.503140 0.087028 2.799802 229 226 217
1.557744 0.258429 9.137665 220 217 208
1.604449 0.272024 9.345838 217 214 205
2.080497 0.395839 11.645820 233 230 221
1.947452 0.378150 10.798747 228 225 216
-0.229585 -0.890117 8.953455 145 134 45
-0.025300 -0.447391 5.147640 214 210 198
0.028117 -0.303883 3.809409 213 207 193
-0.219355 -1.061576 11.157293 208 200 189
-0.022177 -0.480948 5.588119 192 184 171
-0.022722 -0.499164 5.808923 145 137 124
1.118871 0.190502 6.606867 229 226 217
0.593384 0.117475 3.216902 226 223 214
1.248457 0.243228 7.013522 215 212 203
0.967056 0.193985 5.323529 222 219 210
1.814502 0.361770 10.171982 221 218 209
1.532814 0.312331 8.482066 221 218 209
1.506490 0.312215 8.268450 216 213 204
1.225858 0.263497 6.578251 215 212 203
-0.212462 -0.757835 7.624701 148 137 47
-0.226666 -0.854610 8.731751 144 133 44
-0.197080 -0.904091 9.606438 217 214 199
-0.201616 -0.942019 10.048951 207 201 187
-0.197187 -0.956414 10.268417 200 192 181
0.003616 -0.383994 4.698456 185 177 164
-0.099681 -0.715721 8.035836 145 137 124
-0.132686 -0.982073 11.133765 146 141 135
1.087495 0.129097 7.277002 215 212 203
0.518870 0.089470 3.016090 222 219 210
0.764784 0.135335 4.494866 220 217 208
-0.172702 -0.649216 6.731265 148 137 45
-0.175924 -0.668404 6.952770 147 137 42
0.030639 -0.238649 3.146592 134 123 61
-0.179099 -0.823474 8.939405 220 216 205
-0.002375 -0.363111 4.479280 214 208 194
0.002698 -0.359650 4.477923 204 198 184
-0.084888 -0.623281 7.149063 172 164 153
-0.254805 -1.146958 12.489939 144 136 125
-0.039788 -0.609500 7.357643 147 143 134
-0.048124 -0.666155 8.021801 150 147 140
1.441061 0.230958 9.167989 223 220 211
1.356243 0.224057 8.528746 223 220 211
-0.143376 -0.600819 6.502585 144 133 41
-0.146215 -0.619318 6.723980 141 130 41
-0.209729 -0.778588 8.285417 139 124 43
0.076910 -0.135841 2.251589 216 214 201
-0.000677 -0.354399 4.478697 200 194 180
-0.003516 -0.372898 4.700092 160 154 142
-0.226925 -1.022191 11.378915 143 137 125
-0.041493 -0.564431 6.916606 148 144 133
1.124515 0.148300 7.707911 214 212 200
0.421845 0.082939 2.379965 220 217 208
1.305582 0.238714 8.100752 218 215 206
-0.443613 -1.165371 11.657147 149 138 46
-0.475544 -1.251697 12.548201 147 137 42
-0.137496 -0.569274 6.280190 145 134 42
-0.418648 -1.196743 12.312355 143 129 41
-0.195552 -0.721829 7.840117 139 124 43
-0.145726 -0.623294 6.944276 128 117 51
1.771971 0.314005 11.505801 219 216 207
0.711296 0.138919 4.288137 219 216 207
1.379026 0.336337 7.639592 222 219 210
0.822911 0.215071 4.258283 216 213 204
-0.056284 -0.361523 4.272692 149 138 46
-0.474054 -1.212039 12.326792 147 137 42
-0.053088 -0.375051 4.492459 146 135 43
-0.265552 -0.834166 8.961708 141 130 41
-0.275920 -0.872655 9.405723 138 126 44
-0.130595 -0.569302 6.498779 124 115 46
-0.154393 -0.695493 8.049492 118 115 100
-0.256286 -0.969213 10.944819 122 118 106
-0.133407 -0.696883 8.264500 141 137 125
-0.092574 -0.606192 7.371094 143 140 125
0.888573 0.157471 5.784940 219 217 205
1.139199 0.202805 7.482873 219 217 205
1.452782 0.291094 9.163968 213 210 201
0.847874 0.176826 5.133962 217 214 205
0.709548 0.160988 4.067855 219 216 207
-0.317111 -0.868526 9.195839 148 138 43
-0.101883 -0.461911 5.387837 145 134 42
-0.106729 -0.480498 5.609747 141 130 41
-0.164906 -0.611874 6.948990 138 126 44
-0.177664 -0.651140 7.393630 125 117 44
-0.189274 -0.689622 7.837963 103 97 37
-0.011257 -0.308395 4.039914 90 89 43
0.072511 -0.128998 2.252598 82 81 61
1.063652 0.195784 7.061615 213 211 199
0.912189 0.184128 5.778444 219 216 207
1.086020 0.241606 6.614405 224 221 212
0.668169 0.155163 3.858188 215 212 203
1.628675 0.382640 9.778468 219 216 207
0.853014 0.204876 4.911817 221 218 209
1.342736 0.325075 7.869424 222 219 210
1.213315 0.297896 7.021585 218 215 206
0.525645 0.134324 2.793240 214 211 202
1.075943 0.280573 5.955259 219 216 207
1.060911 0.285598 5.738665 214 211 202
1.442251 0.392972 7.842807 214 211 202
1.301351 0.357961 6.998038 211 208 199
2.070147 0.576883 11.204684 214 212 200
-0.288137 -0.787672 8.525988 148 138 43
-0.140658 -0.523664 6.059870 145 134 42
-0.144835 -0.541367 6.281594 141 130 41
-0.159409 -0.581017 6.726705 137 125 43
-0.162151 -0.597742 6.948045 127 118 43
-0.185115 -0.657969 7.616007 109 104 40
-0.165914 -0.630015 7.390265 88 86 37
-0.157110 -0.624009 7.387910 76 77 45
0.051971 -0.169437 2.699250 72 71 50
0.815412 0.128642 5.804150 211 209 197
1.337472 0.232327 9.414826 219 217 205
1.359922 0.277351 8.967608 218 215 206
1.587763 0.328828 10.450913 213 210 201
1.133023 0.241368 7.263444 221 218 209
0.388415 0.089818 2.168048 224 221 212
1.326164 0.328585 7.873605 209 206 197
0.674083 0.180750 3.635886 218 215 206
0.423678 0.113877 2.158616 215 212 203
-0.171844 -0.548823 6.288632 148 138 43
-0.149737 -0.533740 6.282719 140 130 41
-0.153531 -0.550755 6.504333 136 125 43
-0.156751 -0.567378 6.725793 127 118 43
-0.159397 -0.583609 6.947100 112 107 41
-0.161469 -0.599449 7.168254 83 81 30
-0.182997 -0.657415 7.835810 69 69 33
1.323717 0.211896 9.859401 216 214 202
1.190175 0.250618 7.909726 214 212 200
1.650628 0.377236 10.654359 217 215 203
1.466209 0.366820 8.938892 215 212 203
-0.376768 -0.901649 9.872729 146 137 42
-0.150081 -0.509005 6.062032 144 135 42
-0.142999 -0.504173 6.060138 139 129 40
-0.124564 -0.477596 5.834615 135 124 42
-0.139902 -0.516059 6.279902 124 115 40
-0.132533 -0.511031 6.277931 108 103 37
-0.135657 -0.527161 6.499358 80 79 25
-0.259208 -0.807442 9.620693 67 67 43
-0.256599 -0.945650 11.825916 145 141 129
1.074088 0.186231 7.940524 211 209 197
0.406617 0.080802 2.604252 208 206 194
0.354627 0.073328 2.176973 210 208 196
0.416883 0.101805 2.380914 210 208 196
0.672878 0.164474 4.077179 218 216 204
1.226774 0.318404 7.458501 211 208 199
1.953159 0.520024 11.896647 216 213 204
0.893530 0.245026 5.121121 221 218 209
0.900512 0.263789 4.898662 214 211 202
0.464210 0.134096 2.368255 214 211 202
-0.142675 -0.479836 5.839287 142 133 42
-0.124048 -0.453555 5.613721 134 127 39
-0.129085 -0.470563 5.835653 130 122 39
-0.133547 -0.487180 6.057431 120 114 36
-0.398401 -1.061462 12.525230 85 81 54
1.196142 0.230036 8.789965 209 207 195
0.581424 0.136347 3.660350 216 214 202
0.678692 0.189139 3.854918 210 207 198
0.848895 0.250978 4.691733 208 205 196
0.710189 0.210629 3.846494 211 208 199
0.678313 0.202452 3.634435 209 206 197
-0.289617 -0.701418 8.084193 145 135 40
-0.110268 -0.408175 5.168715 140 130 41
-0.128378 -0.446820 5.614714 132 124 39
-0.121870 -0.442380 5.612973 130 122 39
0.509781 0.106883 3.458828 208 206 194
0.925936 0.272516 5.332717 208 205 196
1.109722 0.345332 6.165869 209 206 197
-0.570601 -1.145800 12.791079 144 133 41
-0.101716 -0.380787 4.945707 138 128 39
-0.108282 -0.397984 5.168034 133 125 40
0.019980 -0.183302 2.928025 126 120 36
0.704587 0.194771 4.288905 223 221 209
0.709661 0.198232 4.287548 221 219 207
0.876049 0.248170 5.345895 214 212 200
0.654707 0.186173 3.861106 186 184 172
1.644316 0.479846 10.213523 156 154 142
1.458680 0.429494 8.939753 178 176 164
0.634795 0.185305 3.645861 210 207 198
-0.275946 -0.638733 7.638922 143 132 40
-0.098142 -0.357651 4.724046 138 129 38
-0.236270 -0.599373 7.407747 132 124 39
-0.481927 -1.025069 12.105276 129 121 38
-0.467097 -1.014951 12.101309 126 120 34
0.528111 0.131078 3.453727 212 210 198
0.421447 0.107464 2.600004 203 201 189
1.206751 0.323720 8.124597 211 209 197
0.856226 0.232044 5.571596 204 202 190
0.498815 0.135670 3.020436 203 201 189
0.594079 0.163797 3.656645 199 197 185
0.629216 0.175480 3.867810 185 183 171
0.820984 0.232579 5.139896 195 193 181
0.795707 0.227623 4.926094 201 199 187
1.024138 0.297447 6.408936 185 183 171
-0.249857 -0.571810 6.970047 144 133 41
-0.225167 -0.554965 6.963443 134 124 37
-0.242128 -0.590262 7.409091 130 122 37
-0.405636 -0.867899 10.540605 129 121 38
-0.404837 -0.879216 10.760947 128 120 37
-0.462134 -0.989486 12.099606 122 114 39
-0.154726 -0.542492 7.606269 142 138 126
0.484754 0.059890 4.347447 204 202 190
0.528913 0.066293 4.776747 203 201 189
0.860607 0.173974 6.893586 205 203 191
1.444867 0.347209 10.927873 218 216 204
0.744285 0.201374 4.939697 212 210 198
0.401125 0.109597 2.384814 181 179 167
0.464045 0.140663 2.588540 181 178 169
1.674770 0.563381 9.763602 214 211 202
0.627566 0.204779 3.427026 207 204 195
-0.506138 -0.940252 11.008259 142 133 40
-0.069695 -0.287974 4.054520 141 132 41
-0.065195 -0.284904 4.053317 135 128 38
-0.021477 -0.220769 3.379978 131 124 36
-0.017839 -0.218287 3.379005 129 121 36
-0.316974 -0.719705 9.193275 125 117 44
-0.080890 -0.409967 6.262999 149 147 135
0.614683 0.053172 6.297503 198 196 184
0.586505 0.056817 5.863943 201 199 187
0.556376 0.082003 4.989807 210 208 196
0.400609 0.067211 3.267082 205 203 191
0.546738 0.132605 3.889643 208 206 194
0.609537 0.186887 3.652297 142 140 128
1.736125 0.601032 10.187972 204 201 192
0.604375 0.206237 3.212581 206 204 192
-0.063063 -0.265742 3.832091 141 132 39
-0.335603 -0.671856 8.315812 138 131 40
-0.325652 -0.665067 8.313150 134 127 37
-0.085143 -0.313831 4.499621 128 120 35
-0.288010 -0.650393 8.523624 125 117 45
-0.193307 -0.607796 8.939376 149 147 135
0.719249 0.047847 8.033671 200 198 186
0.830393 0.057628 9.327190 196 194 182
1.003177 0.098457 10.824764 201 199 187
0.925358 0.100404 9.742872 199 197 185
0.704491 0.092819 6.934912 198 196 184
1.026063 0.147096 10.157019 200 198 186
0.420020 0.085873 3.261799 203 201 189
0.518271 0.130890 3.676602 210 208 196
0.548244 0.140332 3.889126 204 202 190
0.566242 0.152612 3.884312 210 208 196
0.556184 0.156757 3.666461 199 197 185
1.851023 0.599866 12.141779 68 66 54
1.056394 0.376949 5.958623 208 205 196
-0.323544 -0.627650 7.871267 139 130 37
-0.061653 -0.258508 3.831608 137 130 39
-0.277306 -0.574941 7.417832 132 127 36
-0.295412 -0.608456 7.863743 128 122 34
-0.075351 -0.289016 4.276339 127 119 34
-0.070565 -0.285750 4.275059 125 117 34
0.009785 -0.167443 2.930364 123 116 36
0.033490 -0.140688 2.703490 131 126 96
0.388935 0.027757 4.152157 204 202 190
0.570000 0.066645 5.867999 201 199 187
0.904338 0.125459 9.307117 201 199 187
0.683044 0.133191 6.058297 201 199 187
1.190569 0.257261 10.553763 204 202 190
0.515468 0.135250 3.677245 202 200 188
0.545250 0.144989 3.889813 198 196 184
0.532318 0.146747 3.672738 106 104 92
0.525516 0.152687 3.454024 179 177 165
1.233246 0.371028 8.778076 67 65 53
1.090725 0.347856 7.272458 208 206 194
0.888690 0.284080 5.782759 186 184 172
0.530399 0.166599 3.232184 152 150 138
1.486213 0.554203 8.489881 209 206 197
0.505791 -0.017389 6.987627 196 194 182
0.402772 0.054478 3.927808 201 199 187
0.343541 0.054682 3.061544 197 195 183
0.468304 0.068727 4.571860 198 196 184
0.389984 0.106676 2.608068 115 113 101
1.225862 0.382515 8.779770 47 45 33
1.660685 0.526877 11.971369 189 187 175
1.489737 0.481320 10.473405 203 201 189
1.357586 0.441926 9.406118 154 152 140
0.575854 0.182722 3.660987 158 156 144
0.580066 0.185596 3.659860 155 153 141
1.594894 0.593682 9.563172 206 203 194
2.025463 0.785912 11.653275 209 207 195
0.397182 0.018456 4.811267 197 195 183
0.755701 0.029626 10.007841 200 198 186
0.742276 0.137187 7.365198 205 203 191
1.134608 0.210333 11.670650 204 202 190
1.274702 0.296190 11.853698 203 201 189
0.534764 0.151232 3.892390 76 74 62
0.518288 0.149718 3.676278 166 164 152
0.522500 0.152592 3.675151 194 192 180
1.194513 0.397105 8.346835 159 157 145
1.682605 0.593947 11.303558 201 199 187
0.669749 0.243330 3.856286 206 203 194
0.479805 0.172095 2.583974 208 205 196
1.076630 0.413943 6.173171 211 208 199
0.272396 0.034720 2.639379 196 194 182
0.374595 0.039352 4.155629 195 193 181
0.365288 0.042302 3.937606 196 194 182
0.408100 0.062212 4.146667 197 195 183
0.584193 0.107961 5.863665 205 203 191
0.805581 0.203212 7.127524 202 200 188
0.502848 0.145455 3.680301 81 79 67
0.748612 0.285237 4.276103 203 200 191
0.857084 0.331347 4.908626 202 199 190
0.445981 0.162453 2.372438 206 203 194
0.518552 0.193368 2.794052 203 200 191
0.235649 0.031529 2.208127 197 195 183
0.457104 0.022922 6.117984 194 192 180
0.412257 0.045558 4.806949 194 192 180
1.061385 0.177916 12.350999 200 198 186
0.694080 0.140245 7.157124 196 194 182
0.304834 0.069860 2.410128 200 198 186
0.403885 0.128568 2.604139 211 209 197
0.694621 0.238209 4.731425 216 214 202
1.152259 0.408490 8.137100 199 197 185
1.362251 0.489658 9.624468 133 131 119
1.830210 0.702469 12.145362 210 208 196
0.846972 0.054988 12.407952 200 198 186
0.518113 0.083965 5.880981 195 193 181
0.509762 0.086712 5.662717 195 193 181
0.422238 0.077666 4.363142 202 200 188
0.427311 0.081127 4.361785 190 188 176
0.921199 0.164746 10.844614 201 199 187
0.785654 0.148272 8.896390 189 187 175
0.560605 0.112956 5.869616 156 154 142
0.696861 0.146805 7.376656 106 104 92
0.298195 0.069039 2.411840 106 104 92
0.949243 0.209215 10.175621 101 99 87
0.577713 0.133073 5.644543 113 111 99
0.584508 0.137709 5.642725 159 157 145
1.052730 0.322047 9.045452 207 205 193
0.521284 0.162133 3.895654 108 106 94
0.671753 0.214124 5.178394 207 205 193
0.534782 0.171342 3.892044 207 205 193
1.274067 0.464615 9.206749 206 204 192
1.098995 0.404282 7.710092 191 189 177
1.451246 0.593946 8.938861 204 202 190
0.532374 0.203479 3.010697 203 200 191
0.736788 0.292277 4.279009 206 203 194
0.376436 0.029917 5.036735 193 191 179
0.352908 0.037917 4.381557 194 192 180
0.248144 0.046617 2.204674 194 192 180
0.418863 0.082916 4.363916 195 193 181
0.702759 0.140311 8.036319 129 127 115
0.524527 0.122938 5.217616 96 94 82
0.757677 0.241922 6.257707 197 195 183
0.702298 0.228192 5.611048 67 65 53
0.399038 0.125515 2.825786 157 155 143
0.643476 0.212112 4.965310 196 194 182
0.507077 0.167157 3.678850 193 191 179
0.439647 0.145204 3.035414 112 110 98
0.486764 0.169333 3.243302 203 201 189
0.490403 0.171816 3.242329 200 198 186
0.811019 0.302370 5.581968 167 165 153
0.623510 0.230561 4.088688 194 192 180
0.902912 0.357049 5.777880 204 202 190
1.175371 0.494835 7.027948 201 198 189
1.150281 0.485734 6.814168 202 199 190
0.202796 -0.011404 3.098680 186 183 174
0.330845 -0.015126 5.710229 193 191 179
0.378422 0.040107 5.036054 190 188 176
0.303102 0.041851 3.512818 190 188 176
0.344315 0.054789 3.942760 194 192 180
0.648794 0.087946 8.932434 194 192 180
0.835095 0.139149 11.087436 194 192 180
0.626804 0.118486 7.615417 196 194 182
0.395363 0.082027 4.149590 190 188 176
0.264310 0.060928 2.200294 74 72 60
0.521106 0.114685 5.659339 56 54 42
0.666583 0.153217 7.384294 145 143 131
0.507946 0.120887 5.221893 175 173 161
0.497107 0.121083 5.004309 190 188 176
0.607122 0.150600 6.297782 197 195 183
0.456074 0.115859 4.353835 189 187 175
0.539051 0.142110 5.213573 179 177 165
0.519578 0.144005 4.777816 105 103 91
1.217674 0.407765 10.764624 193 191 179
1.314294 0.450915 11.400231 198 196 184
0.674405 0.226869 5.397853 56 54 42
0.491637 0.162894 3.682873 157 155 143
0.420563 0.152355 2.599468 207 205 193
0.404480 0.148972 2.383286 205 203 191
0.641283 0.257404 3.863331 205 203 191
1.733132 0.744270 11.067721 204 202 190
1.327906 0.566470 8.309826 202 200 188
0.403159 0.155662 2.163156 201 198 189
0.215336 -0.026512 3.977145 187 184 175
0.346896 -0.080018 8.351475 187 185 173
0.462934 -0.079645 10.745673 189 187 175
0.287890 0.001501 4.619166 186 184 172
0.285277 0.006881 4.399389 189 187 175
0.232526 0.021034 2.870167 191 189 177
0.611682 -0.035463 12.469694 189 187 175
0.509623 0.016681 8.748901 192 190 178
0.418995 0.047970 5.906955 191 189 177
0.714052 0.077362 11.119458 191 189 177
0.619212 0.084287 8.940066 194 192 180
0.515927 0.092615 6.542456 192 190 178
0.654047 0.129545 8.269321 193 191 179
0.605992 0.125411 7.400270 188 186 174
0.494356 0.113715 5.445847 98 96 84
0.390816 0.093215 3.930209 163 161 149
0.651445 0.156423 7.388113 190 188 176
0.513881 0.127036 5.440624 201 199 187
0.520389 0.131476 5.438884 198 196 184
0.452699 0.121110 4.354609 199 197 185
0.440043 0.119638 4.137518 203 201 189
0.805163 0.225484 8.449378 195 193 181
0.346491 0.105953 2.619209 201 199 187
0.793425 0.289110 6.247758 204 202 190
0.443997 0.165316 2.813605 185 183 171
1.173841 0.505679 7.468864 204 202 190
0.684152 0.286188 4.072226 201 199 187
0.910875 0.397897 5.334440 207 204 195
0.221021 -0.029406 4.416448 188 185 176
0.341753 -0.115436 9.895871 188 185 176
0.236241 -0.019021 4.412377 189 187 175
0.194421 0.013071 2.439345 187 185 173
0.251461 -0.008637 4.408306 190 188 176
0.231143 0.004445 3.531866 192 190 178
0.211306 0.017855 2.655297 189 187 175
0.569863 -0.040635 12.480483 189 187 175
0.676822 0.072758 11.129062 193 191 179
0.658707 0.087343 10.252033 195 193 181
0.590051 0.114598 7.845241 189 187 175
0.619044 0.134379 7.837487 194 192 180
0.827514 0.195780 10.427351 106 104 92
0.398567 0.098466 4.148491 170 168 156
0.387823 0.097872 3.930896 184 182 170
0.756117 0.194220 8.903167 196 194 182
0.931683 0.340950 7.974334 195 193 181
0.545192 0.218714 3.447867 203 201 189
1.578699 0.728506 9.565025 198 196 184
0.371141 -0.152858 12.533238 184 181 172
0.237237 -0.023406 4.852905 185 182 173
0.190273 0.013949 2.440391 188 186 174
0.471253 0.016389 8.979079 190 188 176
0.246382 0.033305 3.086768 191 189 177
0.267787 0.035291 3.521965 189 187 175
0.318280 0.038197 4.610767 190 188 176
0.271355 0.056652 2.859627 193 191 179
0.432798 0.084786 5.682444 194 192 180
0.278904 0.068112 2.637146 152 150 138
0.508719 0.130276 5.882598 178 176 164
0.380330 0.099459 3.932786 196 194 182
0.814330 0.218919 9.989623 201 199 187
0.452289 0.129628 4.574924 107 105 93
0.776356 0.230863 8.677012 106 104 92
0.565375 0.168931 5.867445 149 147 135
0.294891 0.085328 2.412409 191 189 177
0.595068 0.208116 5.198119 200 198 186
0.664523 0.236578 5.840925 198 196 184
0.926329 0.396275 6.432284 203 201 189
0.534729 0.217420 3.450566 201 199 187
0.600806 0.249885 3.873815 201 199 187
1.723322 0.782324 11.730647 205 203 191
1.193751 0.534570 7.903987 204 202 190
1.325892 0.599491 8.750488 201 199 187
0.585762 0.252239 3.436916 204 202 190
0.687356 0.302627 4.071127 209 207 195
0.183821 -0.004389 3.103416 187 185 173
0.300964 -0.106797 9.906162 183 181 169
0.233480 -0.017561 4.853767 184 182 170
0.330678 -0.062997 9.016398 185 182 173
0.227055 0.036872 2.650944 187 184 175
0.265175 0.039354 3.522565 189 186 177
0.470563 0.067734 7.656258 190 187 178
0.482638 0.128907 5.668941 158 156 144
0.489433 0.133543 5.667124 195 193 181
0.704289 0.197791 8.696014 204 202 190
0.503023 0.142816 5.663489 201 199 187
0.401771 0.114905 4.147392 146 144 132
0.399834 0.119465 3.927456 61 59 47
0.404333 0.122535 3.926252 80 78 66
0.459443 0.142490 4.572874 35 33 21
0.417832 0.131745 3.922642 138 136 124
0.449329 0.153234 3.914217 210 208 196
0.879333 0.328984 8.208286 204 202 190
1.052824 0.423826 9.043699 36 34 22
1.203307 0.491207 10.326174 38 36 24
0.388170 0.146797 2.607851 146 144 132
0.724618 0.311650 4.942856 202 200 188
0.400342 0.160984 2.384141 199 197 185
0.833554 0.380093 5.134173 204 202 190
0.910727 0.420983 5.554440 204 202 190
0.924317 0.430255 5.550805 208 206 194
0.703317 0.320644 4.066737 201 199 187
0.443463 0.079569 7.001928 188 185 176
0.474533 0.106222 6.773171 191 188 179
0.234939 0.057296 2.207871 189 186 177
0.261319 0.064385 2.641709 191 189 177
0.301222 0.075247 3.292377 193 191 179
0.510676 0.136336 6.543057 142 140 128
0.650849 0.182883 8.489587 127 125 113
