ply
format ascii 1.0
element vertex 1243
property float x
property float y
property float z
property uchar red
property uchar green
property uchar blue
end_header
0.795279 0.068399 2.603706 126 125 107
0.716092 0.068841 2.387166 129 128 110
0.854622 0.076791 2.821352 137 135 123
0.924590 0.080453 3.038405 139 136 127
0.920150 0.082430 3.038653 140 137 128
0.989106 0.086543 3.255762 142 139 130
0.984328 0.088670 3.256029 144 141 132
0.979550 0.090797 3.256295 147 144 135
0.712937 0.348766 4.154984 200 198 186
0.696805 0.390763 4.376838 205 203 191
0.496996 0.305653 3.283205 204 202 190
1.220527 0.644987 7.441005 203 201 189
1.361322 0.721558 8.316974 203 201 189
1.424105 0.763234 8.755383 203 201 189
1.597501 0.860105 9.850489 203 201 189
0.695007 0.426378 4.597894 203 201 189
0.395037 0.281420 2.846981 202 200 188
1.080805 0.637568 7.006886 205 203 191
1.142239 0.679844 7.445371 202 200 188
0.661004 0.441518 4.599790 203 201 189
0.602839 0.571861 5.265899 186 184 172
0.595027 0.575339 5.266335 114 112 100
0.587215 0.578817 5.266770 65 63 51
0.579402 0.582296 5.267206 50 48 36
0.537247 0.566251 5.048602 68 66 54
0.739325 0.754796 6.804974 117 115 103
0.237870 0.316583 2.634790 137 135 123
0.194867 0.300914 2.416233 206 204 192
0.239106 0.350847 2.855676 200 198 186
0.939907 1.083266 9.445250 192 190 178
0.207740 0.329998 2.636470 48 46 34
0.247209 0.486499 3.739045 199 197 185
0.236304 0.491354 3.739653 206 204 192
2.421558 0.028273 6.934278 90 81 22
2.569020 0.031455 7.368104 85 79 21
3.265670 0.031049 9.318475 82 77 22
2.938207 0.039173 8.452638 77 74 21
0.724922 0.060887 2.387379 114 113 93
0.793677 0.064693 2.604569 127 126 108
0.789911 0.066370 2.604779 130 128 113
0.861084 0.069100 2.821835 132 130 117
0.856981 0.070927 2.822063 134 132 120
0.927142 0.074107 3.039175 137 135 123
0.991852 0.079715 3.256591 140 137 128
0.913820 0.080039 3.039918 142 139 130
1.055213 0.085923 3.474082 144 141 132
1.122677 0.090304 3.691345 147 144 135
1.869807 0.859068 10.722463 204 202 190
1.004960 0.521330 6.129178 202 200 188
1.265480 0.646270 7.661821 202 200 188
1.368525 0.703648 8.319148 201 199 187
1.393844 0.726794 8.538761 201 199 187
0.334191 0.269277 2.630193 212 210 198
0.394631 0.345625 3.289896 208 206 194
0.669827 0.532869 5.263769 208 206 194
0.502033 0.435482 4.168004 203 201 189
0.298913 0.319404 2.853185 206 204 192
0.583892 0.571131 5.268561 100 98 86
1.144387 1.044380 9.878819 130 128 116
0.995869 0.938410 8.781979 120 118 106
0.692395 0.694918 6.367633 97 95 83
0.339123 0.404759 3.514016 41 39 27
0.196838 0.296014 2.416828 188 186 174
0.193409 0.297541 2.417019 36 34 22
2.417089 0.017933 6.936688 90 81 22
4.141105 -0.001154 11.704610 84 78 20
4.123177 0.006828 11.705609 81 76 21
1.603883 0.039772 4.771099 77 74 21
0.726892 0.055987 2.387974 105 105 79
0.723463 0.057513 2.388165 116 115 95
0.713176 0.062094 2.388739 129 127 112
0.859339 0.065063 2.822775 132 130 117
0.925254 0.069738 3.040193 137 135 123
1.337667 0.090256 4.343757 147 145 133
0.695473 0.342166 4.158476 204 202 190
1.862900 0.843089 10.726187 207 205 193
0.844159 0.480107 5.476747 202 200 188
0.984982 0.621549 6.795457 208 206 194
1.076244 0.717011 7.674742 208 206 194
0.999422 0.683168 7.236839 210 208 196
0.817847 0.593894 6.141496 206 204 192
0.903603 0.657783 6.799995 202 200 188
0.924733 0.682399 7.019910 200 198 186
1.179363 0.875240 8.995554 206 204 192
0.529718 0.449992 4.388813 206 204 192
0.553208 0.473557 4.608597 208 206 194
0.393212 0.374676 3.512051 197 195 183
0.417039 0.398091 3.731816 197 195 183
0.526005 0.485669 4.610114 140 138 126
0.607826 0.585334 5.489926 200 198 186
0.599677 0.588962 5.490381 201 199 187
0.704765 0.712291 6.589989 196 194 182
0.746070 0.761948 7.029873 113 111 99
0.326718 0.404282 3.515759 175 173 161
0.311373 0.411114 3.516614 53 51 39
1.113662 0.518693 6.569208 203 201 189
0.747538 0.379054 4.599158 205 203 191
1.015491 0.495147 6.132357 204 202 190
1.045243 0.515528 6.351861 204 202 190
0.997169 0.503304 6.133379 204 202 190
0.720335 0.391166 4.600675 202 200 188
0.368651 0.245097 2.629819 202 200 188
0.364885 0.246774 2.630029 202 200 188
0.558712 0.496756 4.830851 169 167 155
0.380807 0.374198 3.513794 34 32 20
0.516312 0.482006 4.612053 139 137 125
0.221355 0.277052 2.416870 214 212 200
0.217925 0.278579 2.417062 209 207 195
0.318901 0.368133 3.296083 203 201 189
0.967901 1.088016 9.894783 176 174 162
0.798538 1.264309 10.567717 202 200 188
1.597612 0.391375 7.207939 190 188 176
0.874055 0.248278 4.151036 191 189 177
0.918500 0.261722 4.369790 191 189 177
0.459934 0.166803 2.404271 192 190 178
0.901063 0.302719 4.591995 194 192 180
0.659953 0.243909 3.499278 193 191 179
1.213134 0.396399 6.123218 191 189 177
0.812642 0.375321 4.818158 208 206 194
0.845959 0.393719 5.037532 205 203 191
1.229755 0.920722 9.662009 208 206 194
0.446846 0.405259 3.953627 211 209 197
0.383746 0.366888 3.514681 76 74 62
0.363287 0.375998 3.515822 204 202 190
1.356034 1.163591 11.646059 190 188 176
0.794955 0.748755 7.252700 47 45 33
0.316869 0.363433 3.297178 85 83 71
0.312091 0.365560 3.297445 168 166 154
0.332597 0.389662 3.517534 211 209 197
0.495803 0.582857 5.278291 197 195 183
0.113406 0.221395 1.759898 144 142 130
0.310923 0.532244 4.403672 204 202 190
0.304459 0.535122 4.404032 202 200 188
0.316198 0.563127 4.624610 202 200 188
0.688227 1.128602 9.470976 201 199 187
0.221578 0.472326 3.744957 201 199 187
1.319169 0.338440 6.119188 188 186 174
0.809107 0.237172 3.934615 188 186 174
0.355541 0.143586 1.968194 196 194 182
1.370848 0.381105 6.558910 200 198 186
1.568471 0.457299 7.654397 193 191 179
1.556950 0.462429 7.655040 193 191 179
0.413897 0.183277 2.407543 199 197 185
1.938151 0.621072 9.846799 195 193 181
0.565709 0.279870 3.505585 200 198 186
0.802468 0.371476 4.820192 198 196 184
0.875281 0.404731 5.258735 204 202 190
0.847203 0.581418 6.366809 205 203 191
0.687073 0.521367 5.490532 201 199 187
0.521472 0.430914 4.393259 205 203 191
0.692148 0.551945 5.711551 205 203 191
0.473233 0.419556 4.174647 200 198 186
0.348282 0.343841 3.296409 121 119 107
0.371341 0.366411 3.516424 207 205 193
1.148839 0.972510 9.890815 210 208 196
0.191949 0.249262 2.198618 101 99 87
0.319615 0.356605 3.298007 123 121 109
0.310059 0.360859 3.298540 32 30 18
0.531542 0.557779 5.277904 113 111 99
0.325307 0.386908 3.518991 196 194 182
0.271837 0.377878 3.300672 135 133 121
0.311945 0.425694 3.741038 200 198 186
0.518725 0.661998 5.942524 202 200 188
1.034763 1.318836 11.888892 204 202 190
0.629061 0.180778 3.060362 191 189 177
0.556911 0.180461 2.843014 189 187 175
2.189925 0.523941 10.057190 191 189 177
2.144235 0.544284 10.059738 192 190 178
1.115525 0.321039 5.468315 198 196 184
2.017928 0.535638 9.624040 196 194 182
0.528187 0.193250 2.844616 190 188 176
0.665832 0.229289 3.501053 184 182 170
1.505138 0.439540 7.438926 183 181 169
0.828975 0.286417 4.377439 194 192 180
0.899402 0.352384 5.037625 200 198 186
0.500283 0.238116 3.067543 196 194 182
0.409041 0.213858 2.629889 196 194 182
0.879193 0.426266 5.481494 197 195 183
0.380463 0.259024 2.852854 170 168 156
1.148814 0.630634 7.680168 171 169 157
1.102519 0.618805 7.461379 180 178 166
1.780080 0.965955 11.851013 182 180 168
0.258657 0.215933 2.195534 205 203 191
0.924080 0.568488 6.585845 198 196 184
1.166421 0.720119 8.343299 208 206 194
1.121474 0.707690 8.124434 206 204 192
1.334894 0.969523 10.547614 196 194 182
0.346250 0.339140 3.297504 165 163 151
0.190634 0.246220 2.199327 164 162 150
0.317583 0.351904 3.299103 196 194 182
0.312805 0.354031 3.299369 177 175 163
0.333361 0.377321 3.519594 110 108 96
0.303250 0.358286 3.299902 39 37 25
0.323132 0.381875 3.520164 81 79 67
0.196405 0.276092 2.420376 186 184 172
0.395915 0.479235 4.401589 188 186 174
0.570955 0.758157 6.826909 204 202 190
0.581059 0.786099 7.047716 200 198 186
0.311340 0.484450 4.184935 200 198 186
0.324816 0.510892 4.405554 205 203 191
0.434748 0.753919 6.391763 201 199 187
0.890745 0.219285 4.153883 189 187 175
1.708446 0.367944 7.651328 188 186 174
1.236556 0.289636 5.684681 188 186 174
2.244367 0.481833 10.057285 193 191 179
0.699461 0.208315 3.500229 190 188 176
0.497830 0.169907 2.625712 192 190 178
0.534649 0.185559 2.845099 195 193 181
1.916177 0.499774 9.189825 193 191 179
0.658542 0.226535 3.502511 191 189 177
0.653427 0.228812 3.502796 193 191 179
2.186947 0.699675 11.389129 194 192 180
1.952708 0.643739 10.294990 193 191 179
0.273309 0.173736 1.973912 204 202 190
0.671101 0.349127 4.387572 204 202 190
0.739294 0.382856 4.826650 202 200 188
1.471979 0.697552 9.214596 196 194 182
1.201520 0.593650 7.679597 183 181 169
0.190103 0.178737 1.757112 142 140 128
0.254250 0.214267 2.196415 199 197 185
0.415884 0.302531 3.294603 202 200 188
1.517333 0.965772 11.205030 201 199 187
0.356761 0.360901 3.519340 185 183 171
1.263599 1.078746 11.219179 94 92 80
0.522469 0.511442 5.060181 198 196 184
0.463939 0.473411 4.620565 183 181 169
0.482329 0.497269 4.840979 185 183 171
0.326071 0.374566 3.521052 150 148 136
0.315841 0.379120 3.521622 33 31 19
0.501461 0.552842 5.282793 83 81 69
0.290952 0.422249 3.744450 201 199 187
0.376465 0.608496 5.289764 203 201 189
0.378613 0.639586 5.511084 202 200 188
0.387900 0.667497 5.732006 203 201 189
0.789777 1.257667 11.024162 204 202 190
0.773199 1.265049 11.025087 201 199 187
0.838741 1.396097 12.128633 198 196 184
2.535700 0.587455 11.816246 190 188 176
1.020121 0.281095 5.033966 194 192 180
1.012646 0.284424 5.034383 190 188 176
1.105649 0.337966 5.693725 193 191 179
1.963829 0.557224 9.854550 197 195 183
2.084767 0.598328 10.512335 196 194 182
0.990310 0.326019 5.257138 193 191 179
0.447267 0.188001 2.629306 198 196 184
1.815727 0.559864 9.419790 199 197 185
0.943436 0.346889 5.259752 198 196 184
0.793362 0.350409 4.825102 194 192 180
1.063039 0.451889 6.360630 203 201 189
2.033739 0.810951 11.844238 200 198 186
0.780918 0.387599 5.047305 193 191 179
0.810628 0.406022 5.267158 185 183 171
0.802816 0.409500 5.267594 124 122 110
0.484908 0.329494 3.734755 58 56 44
0.479456 0.331921 3.735059 182 180 168
0.506469 0.351545 3.955062 212 210 198
0.319525 0.276528 2.857939 204 202 190
0.354586 0.355869 3.520513 207 205 193
0.474649 0.460664 4.621365 34 32 20
0.210634 0.261711 2.420992 158 156 144
0.308742 0.344630 3.301560 191 189 177
0.479293 0.490246 4.842616 191 189 177
0.496865 0.514073 5.063146 188 186 174
0.513763 0.538200 5.283713 188 186 174
0.308551 0.376366 3.523080 102 100 88
0.630494 0.676129 6.606261 109 107 95
0.293207 0.383198 3.523936 196 194 182
0.310441 0.407175 3.744484 207 205 193
0.561647 0.706782 6.610100 199 197 185
0.161030 0.315447 2.645268 202 200 188
0.157264 0.317124 2.645478 200 198 186
0.354839 0.577310 5.071066 201 199 187
0.311431 0.533336 4.630467 198 196 184
0.833513 1.250395 11.246640 197 195 183
0.124906 0.299880 2.425773 200 198 186
0.850547 1.337762 11.910219 199 197 185
1.403294 0.320504 6.565187 192 190 178
1.721437 0.522656 8.984813 193 191 179
1.926817 0.587486 10.081254 194 192 180
1.387579 0.483776 7.673957 194 192 180
0.950290 0.365928 5.482554 199 197 185
0.607988 0.268297 3.729012 197 195 183
0.822590 0.360276 5.046518 194 192 180
0.672067 0.333531 4.390175 199 197 185
0.665603 0.336409 4.390536 189 187 175
1.204372 0.596603 7.905753 209 207 195
0.343976 0.229573 2.635840 201 199 187
0.464939 0.300734 3.515410 207 205 193
0.459824 0.303011 3.515696 208 206 194
0.254713 0.206807 2.197660 168 166 154
0.477138 0.326557 3.736309 37 35 23
0.471686 0.328985 3.736613 140 138 126
0.498218 0.348427 3.956712 204 202 190
0.261118 0.266465 2.640461 147 145 133
0.465232 0.425623 4.401709 217 215 203
1.134865 0.940099 10.125418 198 196 184
0.490534 0.476867 4.843456 29 27 15
0.205747 0.259864 2.421970 186 184 172
1.148657 1.027723 10.789385 195 193 181
0.510441 0.530514 5.285504 198 196 184
0.526521 0.554609 5.506186 208 206 194
0.335960 0.483181 4.408918 203 201 189
0.766113 0.979265 9.259666 199 197 185
0.732723 0.962877 9.039949 198 196 184
0.776695 1.037063 9.702234 199 197 185
0.799809 1.089282 10.144103 199 197 185
0.821574 1.142101 10.586047 197 195 183
0.188216 0.361434 3.087684 198 196 184
1.088514 0.233104 5.033225 190 188 176
1.183157 0.252684 5.471243 192 190 178
2.542450 0.511526 11.601591 189 187 175
1.932381 0.412844 8.975833 191 189 177
1.281369 0.301533 6.130711 191 189 177
1.369605 0.323965 6.569087 193 191 179
1.088990 0.387189 6.141439 195 193 181
0.508798 0.275205 3.514016 50 48 36
0.394000 0.233740 2.855473 161 159 147
0.870559 0.453585 5.931972 202 200 188
0.480271 0.318766 3.737255 188 186 174
0.469367 0.323621 3.737863 26 24 12
0.495756 0.342731 3.958039 159 157 145
0.489966 0.345308 3.958362 202 200 188
0.677894 0.477650 5.499420 204 202 190
0.432074 0.371085 3.961591 204 202 190
0.454079 0.392146 4.182012 195 193 181
0.475410 0.413508 4.402470 66 64 52
0.462483 0.419264 4.403191 201 199 187
0.292903 0.309613 3.082759 196 194 182
0.288462 0.311590 3.083007 202 200 188
0.284021 0.313567 3.083254 45 43 31
0.505458 0.492708 5.065739 39 37 25
1.191271 1.051414 11.233644 198 196 184
0.466084 0.479379 4.846287 211 209 197
0.374436 0.427607 4.186453 196 194 182
0.511853 0.644157 6.173624 196 194 182
0.767595 0.931461 9.040789 197 195 183
0.834211 1.025237 9.923666 199 197 185
0.602588 0.788914 7.498453 198 196 184
0.610769 0.816131 7.719645 196 194 182
0.332849 0.507842 4.632069 197 195 183
0.318581 0.575914 5.076161 198 196 183
0.294775 0.555654 4.855840 199 197 184
0.777818 0.179888 3.721783 185 183 171
2.299836 0.416130 10.288431 186 184 172
1.316867 0.305444 6.352332 189 187 175
1.355588 0.318668 6.571890 192 190 178
1.481358 0.384524 7.451747 191 189 177
1.745323 0.449778 8.767331 189 187 175
1.492990 0.409809 7.672815 193 191 179
0.405148 0.163035 2.412260 193 191 179
0.834220 0.307094 4.827225 193 191 179
0.307738 0.175943 2.195974 205 203 191
0.634251 0.335202 4.394941 202 200 188
0.663194 0.352779 4.615045 203 201 189
1.067554 0.568769 7.474823 205 203 191
0.789305 0.448948 5.716599 201 199 187
0.477953 0.313402 3.738505 202 200 188
0.472501 0.315829 3.738809 200 198 186
0.467048 0.318257 3.739113 61 59 47
0.461596 0.320684 3.739417 34 32 20
0.487504 0.339613 3.959690 190 188 176
0.481715 0.342190 3.960012 191 189 177
0.313217 0.295358 3.082539 196 194 182
0.472662 0.407149 4.403952 138 136 124
0.433095 0.394302 4.184441 124 122 110
0.453271 0.415783 4.405034 193 191 179
0.158432 0.211957 1.982583 194 192 180
0.459171 0.443619 4.626422 183 181 169
0.302646 0.330529 3.304846 41 39 27
0.519421 0.508185 5.288215 37 35 23
0.168600 0.237893 2.203734 213 211 199
0.495984 0.518620 5.289522 200 198 186
0.352777 0.551918 5.075790 199 197 185
0.381049 0.600258 5.517649 199 197 185
0.399149 0.653127 5.960074 200 198 186
0.373463 0.634099 5.739789 199 197 184
0.673240 0.189986 3.506948 193 191 179
1.980788 0.449717 9.644062 191 189 177
2.059685 0.474725 10.083236 193 191 179
1.395007 0.349714 7.015287 193 191 179
1.454234 0.383480 7.455558 191 189 177
1.849788 0.508044 9.651368 195 193 181
2.097384 0.578212 10.968281 196 194 182
0.452062 0.198260 2.853922 192 190 178
0.240568 0.142086 1.756782 195 193 181
1.125195 0.409711 6.586760 195 193 181
0.272961 0.157731 1.976763 197 195 183
1.137688 0.494353 7.251424 122 120 108
0.409022 0.247492 3.078109 66 64 52
1.029221 0.542647 7.257472 74 72 60
0.752456 0.425330 5.498612 177 175 163
0.470182 0.310465 3.740059 203 201 189
0.496621 0.328762 3.960371 173 171 159
0.490832 0.331339 3.960694 40 38 26
0.485042 0.333917 3.961017 66 64 52
0.479253 0.336495 3.961340 203 201 189
0.476377 0.397912 4.405074 201 199 187
0.306888 0.292967 3.083805 194 192 180
0.302447 0.294944 3.084052 59 57 45
0.509979 0.443087 4.846773 26 24 12
0.476682 0.427844 4.626844 157 155 143
0.469881 0.430872 4.627223 209 207 195
0.300615 0.325828 3.305941 180 178 166
0.491625 0.481327 5.069584 49 47 35
0.548072 0.546399 5.731796 174 172 160
0.507974 0.534184 5.512246 198 196 184
0.554752 0.663698 6.618571 200 198 186
0.476999 0.668249 6.401120 199 197 185
0.301860 0.475615 4.414806 197 195 183
0.313464 0.500517 4.635945 197 195 183
0.324393 0.525719 4.857123 197 195 183
0.872962 1.273722 12.145496 197 195 182
0.787823 1.191357 11.263096 198 196 183
0.377749 0.652303 5.963081 199 197 184
0.691525 0.175844 3.506980 189 187 175
1.480170 0.329139 7.234554 189 187 175
1.611096 0.359863 7.892821 189 187 175
0.848516 0.224635 4.385650 190 188 176
0.422806 0.147127 2.412685 190 188 176
0.511868 0.166818 2.851430 187 185 173
0.737308 0.214805 3.948139 191 189 177
0.275804 0.123561 1.755314 192 190 178
1.742839 0.508913 9.438467 194 192 180
0.277299 0.152568 1.977087 194 192 180
1.868131 0.631164 10.762617 200 198 186
0.627312 0.263780 3.954273 201 199 187
0.934845 0.364234 5.711972 200 198 186
0.848702 0.343243 5.273064 201 199 187
0.598366 0.276668 3.955887 200 198 186
0.330220 0.188350 2.417848 61 59 47
0.671011 0.333341 4.617404 196 194 182
1.266971 0.572428 8.355724 147 145 133
0.657410 0.339397 4.618163 33 31 19
0.478768 0.300246 3.740701 131 129 117
0.473315 0.302674 3.741005 209 207 195
0.494159 0.323066 3.961698 211 209 197
0.488370 0.325644 3.962021 112 110 98
0.482580 0.328221 3.962344 27 25 13
0.476791 0.330799 3.962667 177 175 163
0.866190 0.543166 6.825081 183 181 169
0.230776 0.232628 2.423394 202 200 188
0.521219 0.429708 4.847614 200 198 186
0.300559 0.290575 3.085070 185 183 171
0.296118 0.292552 3.085318 66 64 52
0.473789 0.421154 4.628403 26 24 12
0.492667 0.442421 4.849206 154 152 140
0.485530 0.445599 4.849604 204 202 190
1.038602 0.881818 9.921452 204 202 190
0.496359 0.529795 5.514568 200 198 186
0.818036 0.861333 9.046328 198 196 184
0.329861 0.425892 4.192717 204 202 190
0.682723 0.802890 8.166449 205 203 191
0.291535 0.413284 3.972998 198 196 184
0.834821 1.002223 10.154672 198 196 184
0.549774 0.713721 7.064582 202 200 188
0.236296 0.378533 3.532366 200 198 186
0.455188 0.755835 7.069857 196 194 181
1.024975 0.197039 4.820989 188 186 174
1.775120 0.302197 8.108037 187 185 173
1.913370 0.328473 8.766104 186 184 172
0.274776 0.121182 1.755868 189 187 175
0.441423 0.164092 2.634277 192 190 178
2.227252 0.627876 12.077481 193 191 179
0.494057 0.199211 3.075192 197 195 183
1.884342 0.634169 10.986977 193 191 179
0.853192 0.332079 5.274419 192 190 178
0.806695 0.323504 5.055087 198 196 184
0.510327 0.250521 3.518136 100 98 86
1.250719 0.535684 8.137281 193 191 179
1.452426 0.621538 9.457585 170 168 156
0.829079 0.430647 5.941540 182 180 168
0.443833 0.280127 3.521844 14 12 0
0.470997 0.297310 3.742255 140 138 126
0.460093 0.302165 3.742863 200 198 186
0.485908 0.319948 3.963349 177 175 163
0.480119 0.322526 3.963671 39 37 25
0.474329 0.325103 3.963994 101 99 87
0.468540 0.327681 3.964317 209 207 195
0.492669 0.346215 4.184897 199 197 185
0.367109 0.314288 3.526123 207 205 193
0.298671 0.286206 3.086088 197 195 183
0.294230 0.288183 3.086336 187 185 173
0.289789 0.290160 3.086584 48 46 34
0.177023 0.223260 2.205171 199 197 185
0.310845 0.339340 3.529260 192 190 178
0.493829 0.492084 5.294459 75 73 61
0.277440 0.324936 3.309198 34 32 20
1.186186 1.091406 12.135537 105 103 91
0.290385 0.348449 3.530401 198 196 184
0.307434 0.370136 3.751376 197 195 183
0.327256 0.419864 4.194121 197 195 183
0.858014 1.120415 11.266136 197 195 183
0.841098 1.127946 11.267079 196 194 182
0.859070 1.178499 11.709928 198 196 184
0.993388 0.202729 4.824217 189 187 175
1.230670 0.328133 6.586943 189 187 175
1.220835 0.332512 6.587491 190 188 176
1.340784 0.365749 7.246786 191 189 177
0.330306 0.151385 2.197258 193 191 179
0.409691 0.173802 2.636821 193 191 179
0.733137 0.260841 4.394741 194 192 180
0.564416 0.220437 3.516171 195 193 181
0.523497 0.238657 3.518453 198 196 184
1.815013 0.674469 11.216245 33 31 19
0.508152 0.245489 3.519309 180 178 166
1.102157 0.471997 7.260094 204 202 190
1.233338 0.529116 8.140757 38 36 24
0.198802 0.152173 1.760602 189 187 175
0.249915 0.187178 2.201741 33 31 19
0.246823 0.188555 2.201914 88 86 74
0.457774 0.296801 3.744113 194 192 180
0.452322 0.299228 3.744417 194 192 180
0.477657 0.316830 3.964999 74 72 60
0.441418 0.304083 3.745025 26 24 12
0.466078 0.321985 3.965644 62 60 48
0.490064 0.340187 4.186301 160 158 146
0.483937 0.342915 4.186643 209 207 195
0.550838 0.399773 4.848896 199 197 185
0.571789 0.419326 5.069723 199 197 185
0.619818 0.455704 5.511034 200 198 186
0.292342 0.283814 3.087354 198 196 184
0.287901 0.285792 3.087602 186 184 172
0.283460 0.287769 3.087849 42 40 28
0.294519 0.311726 3.309227 216 214 202
1.043562 0.902429 10.371287 198 196 184
0.482695 0.487876 5.296686 110 108 96
0.288210 0.343417 3.531574 73 71 59
1.097849 1.051547 11.700228 182 180 168
0.299663 0.367199 3.752930 202 200 188
0.540835 0.693042 7.069401 203 201 189
0.206371 0.379856 3.536138 199 197 184
0.666777 0.983546 9.726315 200 198 185
2.049008 0.408009 10.096353 192 190 178
1.018417 0.240183 5.268417 192 190 178
0.689896 0.187053 3.732289 191 189 177
0.521322 0.233624 3.519626 187 185 173
1.039618 0.401659 6.599619 64 62 50
1.881918 0.681807 11.660119 60 58 46
0.505977 0.240457 3.520481 192 190 178
1.240347 0.511688 8.142873 144 142 130
0.197773 0.149795 1.761156 210 208 196
0.607581 0.309162 4.403071 195 193 181
0.999038 0.533671 7.490138 209 207 195
0.450003 0.293864 3.745667 201 199 187
0.475195 0.311134 3.966326 197 195 183
0.469405 0.313712 3.966649 158 156 144
0.481332 0.336888 4.188048 74 72 60
0.388333 0.292837 3.527042 200 198 186
0.211497 0.200656 2.204519 196 194 182
0.669799 0.537833 6.398178 196 194 182
0.281572 0.283400 3.088867 195 193 181
0.277131 0.285377 3.089115 73 71 59
1.067826 0.930334 10.817262 208 206 194
1.188916 1.047336 12.142893 197 195 183
0.471560 0.483668 5.298913 153 151 139
0.297345 0.361835 3.754180 183 181 169
0.094003 0.252970 2.211071 195 193 180
0.648788 0.142779 3.291435 188 186 174
0.797301 0.189016 4.171687 188 186 174
1.949838 0.378115 9.660747 187 185 173
1.935283 0.384596 9.661559 188 186 174
2.240433 0.445362 11.199475 190 188 176
0.727460 0.192022 3.953448 191 189 177
0.262021 0.118352 1.758071 193 191 179
1.212469 0.313159 6.592001 193 191 179
1.278075 0.340130 7.032609 194 192 180
1.340982 0.368301 7.473368 189 187 175
1.413051 0.392394 7.913615 190 188 176
0.447440 0.176248 2.858397 195 193 181
0.524261 0.226315 3.520513 195 193 181
0.519146 0.228592 3.520798 176 174 162
0.998192 0.380475 6.381817 23 21 9
0.508917 0.233147 3.521369 100 98 86
0.503802 0.235424 3.521654 197 195 183
0.349994 0.191545 2.641698 193 191 179
0.483342 0.244534 3.522795 56 54 42
1.094937 0.477852 7.487089 197 195 183
0.878501 0.405676 6.166358 146 144 132
0.598368 0.305681 4.404914 21 19 7
0.458589 0.283645 3.746309 163 161 149
0.472600 0.333588 4.189794 32 30 18
0.210182 0.197614 2.205228 190 188 176
0.460348 0.339043 4.190477 205 203 191
0.276122 0.308707 3.312217 202 200 188
0.266567 0.312962 3.312750 187 185 173
0.482497 0.497724 5.522042 177 175 163
0.452614 0.482939 5.301575 61 59 47
0.100041 0.190474 1.767104 139 137 125
0.284122 0.361326 3.756038 191 189 177
0.376554 0.544895 5.527950 194 192 180
1.890904 0.276499 8.778215 181 179 167
1.336083 0.218887 6.364927 183 181 169
0.641978 0.140206 3.292797 186 184 172
0.765523 0.168283 3.952516 189 187 175
1.368191 0.287676 7.029744 192 190 178
0.304499 0.124298 1.978401 193 191 179
1.208287 0.303483 6.594256 191 189 177
0.778964 0.245383 4.618374 188 186 174
1.251019 0.367541 7.258481 191 189 177
0.522086 0.221282 3.521686 195 193 181
0.516971 0.223560 3.521971 154 152 140
0.511856 0.225837 3.522256 23 21 9
0.506741 0.228115 3.522541 163 161 149
0.496511 0.232669 3.523112 192 190 178
0.946663 0.392275 6.386643 29 27 15
0.918169 0.404962 6.388232 171 169 157
1.001545 0.478619 7.272393 15 13 1
0.306963 0.206285 2.644872 81 79 67
0.914771 0.517254 7.277232 193 191 179
1.052335 0.594479 8.380574 210 208 196
0.218143 0.190442 2.205420 205 203 191
0.215051 0.191819 2.205592 175 173 161
0.211959 0.193196 2.205764 34 32 20
0.208867 0.194572 2.205937 35 33 21
0.457742 0.333016 4.191882 183 181 169
0.202683 0.197326 2.206282 202 200 188
0.288424 0.297625 3.312513 151 149 137
0.283646 0.299752 3.312780 49 47 35
0.274090 0.304007 3.313313 145 143 131
0.269313 0.306134 3.313579 209 207 195
0.470881 0.493335 5.524365 183 181 169
0.462732 0.496964 5.524819 67 65 53
0.224508 0.298388 3.093875 46 44 32
0.281803 0.355962 3.757288 160 158 146
0.495898 0.676061 7.078388 195 193 181
1.360538 0.196856 6.365515 184 182 170
0.405437 0.103423 2.195611 184 182 170
0.683589 0.143373 3.513731 187 185 173
0.417485 0.125358 2.417211 188 186 174
0.953765 0.241473 5.276840 190 188 176
0.519911 0.216250 3.522858 202 200 188
0.365622 0.175749 2.642375 97 95 83
0.916201 0.340096 5.945750 31 29 17
0.504566 0.223082 3.523714 197 195 183
0.494336 0.227637 3.524285 196 194 182
0.489221 0.229914 3.524570 128 126 114
0.484106 0.232192 3.524855 25 23 11
0.478991 0.234469 3.525140 186 184 172
0.473877 0.236747 3.525426 206 204 192
0.914129 0.395617 6.390409 79 77 65
0.345467 0.212022 2.865771 115 113 101
0.212419 0.162064 1.984102 194 192 180
0.464856 0.268062 3.748200 140 138 126
0.453952 0.272917 3.748809 182 180 168
0.443048 0.277772 3.749417 192 190 178
0.432143 0.282628 3.750025 43 41 29
1.017467 0.568002 8.162822 187 185 173
1.122078 0.630621 9.046076 202 200 188
0.444652 0.304358 3.971599 194 192 180
0.210644 0.190154 2.206473 175 173 161
1.166016 0.692956 9.710442 43 41 29
0.315872 0.252499 3.089693 32 30 18
0.449010 0.329716 4.193628 207 205 193
0.470063 0.347642 4.414726 204 202 190
0.281614 0.295051 3.313875 181 179 167
0.276836 0.297179 3.314142 82 80 68
0.272058 0.299306 3.314408 20 18 6
0.716447 0.647431 7.735065 116 114 102
0.793411 0.722360 8.619861 202 200 188
0.257725 0.305688 3.315207 206 204 192
0.233836 0.316324 3.316540 134 132 120
1.036377 0.195525 5.273838 189 187 175
1.028565 0.199004 5.274274 187 185 173
1.212286 0.305529 6.820417 190 188 176
1.285181 0.326881 7.261035 191 189 177
0.517736 0.211218 3.524031 197 195 183
0.507506 0.215773 3.524602 49 47 35
0.502391 0.218050 3.524887 199 197 185
0.492161 0.222605 3.525457 196 194 182
0.487046 0.224882 3.525742 47 45 33
0.481931 0.227160 3.526028 38 36 24
0.476816 0.229437 3.526313 204 202 190
0.471701 0.231714 3.526598 192 190 178
0.462537 0.262698 3.749450 96 94 82
0.451633 0.267553 3.750059 197 195 183
0.440729 0.272409 3.750667 198 196 184
0.465347 0.288351 3.971635 32 30 18
0.453768 0.293507 3.972281 41 39 27
1.174434 0.645228 9.490623 194 192 180
1.275100 0.708022 10.374374 206 204 192
0.436400 0.301240 3.973249 206 204 192
0.206237 0.188488 2.207355 152 150 138
1.311528 0.772514 11.039366 29 27 15
0.446405 0.323689 4.195033 98 96 84
0.440279 0.326417 4.195374 201 199 187
0.721152 0.578012 7.292488 193 191 179
0.781296 0.631945 7.956158 187 185 173
0.711601 0.609169 7.515362 197 195 183
0.270027 0.294605 3.315503 88 86 74
0.265249 0.296733 3.315770 37 35 23
0.787938 0.709699 8.622811 101 99 87
0.255693 0.300987 3.316303 205 203 191
0.250916 0.303115 3.316569 196 194 182
0.225172 0.287673 3.095664 205 203 191
0.236582 0.309496 3.317369 96 94 82
0.227027 0.313751 3.317901 151 149 137
0.472115 0.608183 6.639352 194 192 180
0.479875 0.631632 6.861261 196 194 182
0.504217 0.674601 7.304586 198 196 184
1.986225 0.240592 9.225865 184 182 170
2.512936 0.297667 11.643008 183 181 169
0.933506 0.152638 4.613949 184 182 170
0.671298 0.189861 3.961340 185 183 171
1.666958 0.382745 9.243669 183 181 169
1.514265 0.450731 9.252184 194 192 180
0.482994 0.194177 3.304609 192 190 178
0.515561 0.206186 3.525204 178 176 164
0.510446 0.208463 3.525489 26 24 12
0.505331 0.210740 3.525774 75 73 61
0.500216 0.213018 3.526059 201 199 187
0.489986 0.217573 3.526630 180 178 166
0.484871 0.219850 3.526915 19 17 5
0.479756 0.222127 3.527200 73 71 59
0.509288 0.235487 3.747964 211 209 197
0.469526 0.226682 3.527771 180 178 166
0.320989 0.186785 2.646412 88 86 74
1.161672 0.501688 8.382204 188 186 174
1.601150 0.677128 11.471444 193 191 179
0.465671 0.254907 3.750396 191 189 177
0.449315 0.262189 3.751308 204 202 190
0.382661 0.238850 3.310204 193 191 179
0.438410 0.267045 3.751917 186 184 172
0.462885 0.282656 3.972962 27 25 13
0.305046 0.220391 2.869712 23 21 9
0.445517 0.290389 3.973931 78 76 64
1.297058 0.706491 10.598760 200 198 186
0.428149 0.298122 3.974899 192 190 178
1.359610 0.784672 11.484914 89 87 75
0.443800 0.317661 4.196437 29 27 15
0.437673 0.320389 4.196779 189 187 175
0.458102 0.337802 4.418050 189 187 175
0.533071 0.410455 5.303511 136 134 122
0.644967 0.519683 6.631735 22 20 8
0.682172 0.556134 7.074481 68 66 54
0.718028 0.593186 7.517302 169 167 155
0.455540 0.418467 5.085424 199 197 185
0.695661 0.603145 7.518550 206 204 192
0.263217 0.292032 3.316865 144 142 130
0.258439 0.294159 3.317132 16 14 2
0.769595 0.702767 8.626479 69 67 55
0.248884 0.298414 3.317665 211 209 197
0.244106 0.300541 3.317931 198 196 184
0.205521 0.291213 3.097672 20 18 6
0.201080 0.293190 3.097920 179 177 165
0.215439 0.313305 3.319530 193 191 179
0.203970 0.371428 3.764990 198 196 183
1.890352 0.240882 9.011585 185 183 171
1.972787 0.256403 9.451947 185 183 171
1.859040 0.307048 9.458290 185 183 171
1.350314 0.246317 7.039382 185 183 171
0.625914 0.151050 3.520101 193 191 179
0.266551 0.102154 1.760303 187 185 173
0.605154 0.212519 3.966218 189 187 175
0.480963 0.189477 3.305705 192 190 178
0.513385 0.201153 3.526376 173 171 159
0.508270 0.203431 3.526662 9 7 0
0.503155 0.205708 3.526947 118 116 104
0.498041 0.207985 3.527232 191 189 177
0.487811 0.212540 3.527803 163 161 149
0.482696 0.214818 3.528088 16 14 2
0.477581 0.217095 3.528373 112 110 98
0.506969 0.230123 3.749214 200 198 186
0.467351 0.221650 3.528944 183 181 169
0.319388 0.183079 2.647275 69 67 55
0.446891 0.230759 3.530084 33 31 19
1.188822 0.501009 8.605746 195 193 181
0.463352 0.249543 3.751646 191 189 177
0.452448 0.254398 3.752254 97 95 83
0.446996 0.256825 3.752558 205 203 191
0.411087 0.246701 3.532081 201 199 187
0.436092 0.261681 3.753167 179 177 165
0.749091 0.409558 6.182990 113 111 99
0.594387 0.347876 5.079218 99 97 85
0.443055 0.284693 3.975258 22 20 8
0.465700 0.300723 4.196475 174 172 160
0.487671 0.317053 4.417730 194 192 180
0.425687 0.292426 3.976227 199 197 185
0.447321 0.308906 4.197500 196 194 182
0.441194 0.311634 4.197842 28 26 14
0.970037 0.598423 8.617947 82 80 68
0.428941 0.317090 4.198525 196 194 182
1.096357 0.724968 10.168261 186 184 172
1.206441 0.806517 11.274522 38 36 24
0.452361 0.411113 5.087138 98 96 84
0.467251 0.430596 5.308788 196 194 182
0.613636 0.548207 6.857983 199 197 185
0.256407 0.289459 3.318227 144 142 130
0.251630 0.291586 3.318494 22 20 8
0.688202 0.645570 7.966224 107 105 93
0.738383 0.701566 8.630865 200 198 186
0.972711 0.936697 11.510036 195 193 181
0.232064 0.326410 3.542064 191 189 177
0.257402 0.393467 4.208091 198 196 184
0.207104 0.363637 3.765936 197 195 182
0.201652 0.366064 3.766240 195 193 180
2.158126 0.260069 10.334731 185 183 171
2.457197 0.306929 11.875897 182 180 168
1.526364 0.232753 7.699372 184 182 170
0.735845 0.147537 3.960120 191 189 177
1.301032 0.230213 6.821741 89 87 75
1.335335 0.240657 7.042377 66 64 52
1.330507 0.319958 7.710294 180 178 166
1.278894 0.317221 7.490623 164 162 150
0.393112 0.145835 2.643938 176 174 162
1.098857 0.294513 6.610466 188 186 174
0.602692 0.206823 3.967546 196 194 182
0.516325 0.193844 3.527264 191 189 177
0.511210 0.196121 3.527549 142 140 128
0.506095 0.198398 3.527834 22 20 8
0.500980 0.200676 3.528120 157 155 143
0.495865 0.202953 3.528405 185 183 171
0.490750 0.205231 3.528690 190 188 176
0.485635 0.207508 3.528975 154 152 140
0.475406 0.212063 3.529546 142 140 128
0.504651 0.224759 3.750464 191 189 177
0.465176 0.216618 3.530116 196 194 182
0.426375 0.208176 3.309731 20 18 6
0.655036 0.286386 4.854823 49 47 35
0.444716 0.225727 3.531257 22 20 8
0.439601 0.228005 3.531542 199 197 185
0.461034 0.244179 3.752896 180 178 166
0.450130 0.249034 3.753504 114 112 100
0.444677 0.251461 3.753808 188 186 174
0.433773 0.256317 3.754416 190 188 176
0.422869 0.261172 3.755025 112 110 98
0.417417 0.263599 3.755329 189 187 175
0.463095 0.294696 4.197880 82 80 68
0.484922 0.310694 4.419212 192 190 178
0.417436 0.289308 3.977877 196 194 182
0.438589 0.305607 4.199246 60 58 46
0.432463 0.308334 4.199588 30 28 16
0.426336 0.311062 4.199929 207 205 193
0.446140 0.327962 4.421374 196 194 182
0.465270 0.345161 4.642857 189 187 175
0.786803 0.536322 7.518065 190 188 176
0.850377 0.585168 8.182167 94 92 80
0.469450 0.369017 4.865173 39 37 25
0.486557 0.387117 5.086768 39 37 25
0.456657 0.400430 5.088435 125 123 111
0.441707 0.407087 5.089269 82 80 68
0.434232 0.410415 5.089686 205 203 191
0.642233 0.574975 7.303578 202 200 188
0.249598 0.286886 3.319589 126 124 112
0.732910 0.688904 8.633816 154 152 140
0.821035 0.778252 9.741647 207 205 193
1.006695 0.978476 12.179334 201 199 187
0.370182 0.464650 5.315807 200 198 186
0.792846 0.996540 11.523612 198 196 184
0.097166 0.226170 2.215344 195 193 181
0.062443 0.190196 1.772182 197 195 182
0.193881 0.363128 3.767794 197 195 182
1.085586 0.136954 5.277517 182 180 168
2.151506 0.244754 10.338300 183 181 169
1.508999 0.201647 7.480090 181 179 167
0.410194 0.108489 2.421141 181 179 167
1.877388 0.316161 9.908349 164 162 150
1.905815 0.328825 10.129382 190 188 176
2.148482 0.372708 11.451560 192 190 178
0.681280 0.165040 3.964353 189 187 175
0.675491 0.167618 3.964676 189 187 175
0.488495 0.149591 3.084630 188 186 174
1.012148 0.245617 5.949468 113 111 99
1.123776 0.297201 6.833717 132 130 118
0.514150 0.188811 3.528436 181 179 167
0.509035 0.191089 3.528722 102 100 88
0.503920 0.193366 3.529007 30 28 16
0.498805 0.195644 3.529292 177 175 163
0.488575 0.200198 3.529863 199 197 185
0.483460 0.202476 3.530148 103 101 89
0.478345 0.204753 3.530433 34 32 20
0.473230 0.207031 3.530718 174 172 160
0.463001 0.211585 3.531289 198 196 184
0.491428 0.224250 3.752322 128 126 114
0.458715 0.238815 3.754146 179 177 165
0.447811 0.243670 3.754754 132 130 118
0.442359 0.246098 3.755058 195 193 181
0.431455 0.250953 3.755666 180 178 166
0.420551 0.255808 3.756275 97 95 83
0.426552 0.278457 3.978558 187 185 173
0.414974 0.283612 3.979204 195 193 181
0.435984 0.299579 4.200651 112 110 98
0.397606 0.291345 3.980172 88 86 74
0.417604 0.307763 4.201676 107 105 93
0.436928 0.324480 4.423217 164 162 150
0.455578 0.341498 4.644795 192 190 178
0.225794 0.215914 2.654043 191 189 177
0.170058 0.190087 2.211914 194 192 180
0.499668 0.397832 5.310192 153 151 139
0.819837 0.609780 8.408995 55 53 41
0.283978 0.291294 3.541272 26 24 12
0.561501 0.496909 6.419836 147 145 133
0.668908 0.601016 7.749557 196 194 182
0.666258 0.627517 7.972323 22 20 8
0.754678 0.714756 9.080484 195 193 181
0.820008 0.786955 9.967315 195 193 181
0.330794 0.422379 4.874372 201 199 187
0.377465 0.502885 5.762243 194 192 180
0.638388 0.817177 9.532206 191 189 177
0.092759 0.224504 2.216225 192 190 177
0.236557 0.413695 4.434390 196 194 181
0.831596 0.116247 4.179848 183 181 169
0.725132 0.138724 3.963098 159 157 145
0.388161 0.114277 2.423075 45 43 31
1.884109 0.320622 10.133723 55 53 41
2.038888 0.351412 11.015843 75 73 61
0.504369 0.137314 3.084658 85 83 71
0.499928 0.139291 3.084905 144 142 130
0.910394 0.205792 5.288893 191 189 177
2.096034 0.400745 11.680719 179 177 165
2.119261 0.415330 11.902112 128 126 114
0.558009 0.163282 3.527042 88 86 74
0.592699 0.172763 3.747795 160 158 146
0.587247 0.175190 3.748099 174 172 160
0.581795 0.177618 3.748403 102 100 88
1.340015 0.338544 8.159875 164 162 150
0.511975 0.183779 3.529609 183 181 169
0.501745 0.188334 3.530180 61 59 47
0.496630 0.190611 3.530465 190 188 176
0.273870 0.140238 2.206761 189 187 175
0.481285 0.197443 3.531321 59 57 45
0.476170 0.199721 3.531606 42 40 28
0.264594 0.144368 2.207278 199 197 185
0.460825 0.206553 3.532462 187 185 173
0.489109 0.218886 3.753572 187 185 173
0.456397 0.233451 3.755396 173 171 159
0.445492 0.238306 3.756004 153 151 139
0.429136 0.245589 3.756916 192 190 178
0.453037 0.259873 3.978271 55 53 41
0.418232 0.250444 3.757525 62 60 48
0.424091 0.272761 3.979886 199 197 185
0.412512 0.277916 3.980531 191 189 177
0.433378 0.293552 4.202055 161 159 147
0.453570 0.309487 4.423617 94 92 80
0.427716 0.320999 4.425059 58 56 44
0.741475 0.505337 7.302502 165 163 151
0.779219 0.538384 7.745773 196 194 182
0.839572 0.586290 8.410471 199 197 185
0.732556 0.534235 7.525688 198 196 184
0.791223 0.582891 8.190479 188 186 174
0.916708 0.676576 9.519608 52 50 38
0.557462 0.487564 6.422013 43 41 29
0.590486 0.522712 6.865547 189 187 175
0.664008 0.589681 7.752198 204 202 190
0.734833 0.657850 8.638999 163 161 149
0.843460 0.759041 9.969068 21 19 7
0.748918 0.701431 9.083589 130 128 116
0.852825 0.804723 10.413921 190 188 176
0.309870 0.398396 4.654318 146 144 132
0.338173 0.435646 5.098115 196 194 182
0.221957 0.337834 3.768470 187 185 173
0.554658 0.738073 8.649047 192 190 178
0.441568 0.086474 2.420802 182 180 168
0.956569 0.200599 5.510681 27 25 13
0.694209 0.170231 4.188769 158 156 144
0.584928 0.169826 3.749349 195 193 181
0.579476 0.172254 3.749653 196 194 182
0.300382 0.124806 2.205918 77 75 63
0.251050 0.122241 1.985912 188 186 174
0.499570 0.183302 3.531352 115 113 101
0.494455 0.185579 3.531638 195 193 181
0.484225 0.190134 3.532208 186 184 172
0.514051 0.201384 3.753302 34 32 20
0.473995 0.194689 3.532778 65 63 51
0.263279 0.141326 2.207987 201 199 187
0.486791 0.213522 3.754822 201 199 187
0.180239 0.129238 1.767104 79 77 65
1.549811 0.574252 11.269281 149 147 135
1.659173 0.623681 12.154211 189 187 175
0.454078 0.228087 3.756646 180 178 166
0.443174 0.232942 3.757254 101 99 87
0.437722 0.235370 3.757558 193 191 179
0.426818 0.240225 3.758166 193 191 179
0.450575 0.254177 3.979599 103 101 89
0.415913 0.245080 3.758774 18 16 4
0.410461 0.247507 3.759079 145 143 131
0.405009 0.249935 3.759383 45 43 31
0.399557 0.252362 3.759687 62 60 48
0.421629 0.267065 3.981213 192 190 178
0.404261 0.274798 3.982181 187 185 173
0.424646 0.290252 4.203802 193 191 179
0.444358 0.306006 4.425459 193 191 179
0.330777 0.258456 3.540765 136 134 122
0.325662 0.260733 3.541050 50 48 36
0.750167 0.513272 7.527004 120 118 106
0.786613 0.546106 7.970486 186 184 172
0.762897 0.556665 7.971809 202 200 188
0.842252 0.619455 8.858411 172 170 158
0.584713 0.488818 6.645203 161 159 147
0.553423 0.478220 6.424191 24 22 10
0.586160 0.512704 6.867879 171 169 157
0.688474 0.614332 8.198716 196 194 182
0.980385 0.876848 11.746550 45 43 31
0.289232 0.375075 4.434110 78 76 64
0.300177 0.394733 4.656257 189 187 175
0.916153 0.112493 4.623304 179 177 165
1.433062 0.147825 7.045568 183 181 169
1.271236 0.147473 6.386114 185 183 171
1.215140 0.148315 6.166416 182 180 168
0.378386 0.110583 2.425030 186 184 172
0.409303 0.120952 2.646132 39 37 25
0.249879 0.119530 1.986543 163 161 149
0.497394 0.178269 3.532525 159 157 145
0.492279 0.180547 3.532810 195 193 181
0.487164 0.182824 3.533095 190 188 176
0.482050 0.185102 3.533381 182 180 168
0.511732 0.196020 3.754552 44 42 30
0.471820 0.189656 3.533951 110 108 96
0.500828 0.200875 3.755160 194 192 180
0.479020 0.210585 3.756376 191 189 177
0.181629 0.125783 1.767523 184 182 170
0.451759 0.222723 3.757896 197 195 183
0.446307 0.225150 3.758200 33 31 19
0.410441 0.216985 3.537374 47 45 33
0.435403 0.230006 3.758808 200 198 186
0.424499 0.234861 3.759416 192 190 178
0.448113 0.248481 3.980926 195 193 181
0.471052 0.262403 4.202473 68 66 54
0.408143 0.242143 3.760328 30 28 16
0.402691 0.244571 3.760633 40 38 26
0.397238 0.246998 3.760937 157 155 143
0.391786 0.249426 3.761241 194 192 180
0.838546 0.484936 7.747201 182 180 168
1.162705 0.702629 11.071519 192 190 178
0.318372 0.257978 3.542508 104 102 90
0.213456 0.208152 2.657054 37 35 23
0.770601 0.635863 8.865122 136 134 122
0.860579 0.716475 9.974236 200 198 186
1.008084 0.843878 11.748621 202 200 188
0.305639 0.336052 4.211697 59 57 45
0.318801 0.354327 4.433790 200 198 186
0.299410 0.362961 4.434871 198 196 184
0.286483 0.368716 4.435592 40 38 26
0.297285 0.388042 4.657816 194 192 180
1.421816 0.116764 6.825460 182 180 168
0.906460 0.108830 4.625243 180 178 166
1.512343 0.147675 7.489099 182 180 168
1.688328 0.164276 8.370867 183 181 169
1.623430 0.240650 8.820278 74 72 60
0.407701 0.117247 2.646996 159 156 151
0.403935 0.118924 2.647206 54 50 47
0.536139 0.155018 3.531416 193 190 181
0.248707 0.116820 1.987175 99 97 85
0.495219 0.173237 3.533698 201 199 187
0.484989 0.177792 3.534268 184 182 170
0.514866 0.188229 3.755498 142 140 128
0.469644 0.184624 3.535124 174 172 160
0.498510 0.195511 3.756410 197 195 183
0.449441 0.217359 3.759146 194 192 180
0.433085 0.224642 3.760058 143 141 129
0.416728 0.231924 3.760970 194 192 180
0.411276 0.234352 3.761274 196 194 182
0.378564 0.248917 3.763099 193 191 179
0.189534 0.166906 2.213370 202 200 188
0.186442 0.168283 2.213543 204 202 190
0.180258 0.171036 2.213888 191 189 177
1.235886 0.745553 11.962429 192 190 178
0.287216 0.242110 3.322401 150 148 136
0.705943 0.482982 7.311173 46 44 32
0.625524 0.447570 6.646970 36 34 22
0.684250 0.492641 7.312382 150 148 136
0.345919 0.310930 4.210710 96 94 82
0.339792 0.313658 4.211052 190 188 176
0.327539 0.319114 4.211735 103 101 89
0.341907 0.336456 4.433830 207 205 193
0.296661 0.356601 4.436353 202 200 188
0.283734 0.362357 4.437074 45 43 31
0.294393 0.381351 4.659375 201 199 187
0.882099 0.088355 4.405034 181 179 167
2.429381 0.193122 11.899557 178 176 164
1.809401 0.165697 9.035587 182 180 168
1.198187 0.134368 6.171127 183 181 169
0.458827 0.090064 2.644919 186 184 172
1.285249 0.165635 6.835167 188 186 174
0.463430 0.111359 2.867627 115 113 101
1.172114 0.192665 6.618511 201 198 189
0.402333 0.115218 2.648069 180 176 175
0.944993 0.200414 5.739317 107 104 97
2.034984 0.368726 11.921551 115 112 105
0.330891 0.123684 2.429088 187 185 173
0.513504 0.159095 3.533729 189 187 175
0.512547 0.182865 3.756748 87 85 73
0.196496 0.113491 1.767688 46 44 32
0.501643 0.187720 3.757356 192 190 178
0.452574 0.209567 3.760092 200 198 186
0.262309 0.154220 2.432913 175 173 161
1.050972 0.410009 8.186021 42 40 28
0.436218 0.216850 3.761004 49 47 35
0.430766 0.219278 3.761308 102 100 88
0.808210 0.354691 6.638804 193 191 179
0.381697 0.241125 3.764045 201 199 187
0.182035 0.166617 2.214424 91 89 77
1.307114 0.716151 12.185106 164 162 150
0.546851 0.354342 5.538554 196 194 182
1.051020 0.620082 10.192703 200 198 186
1.132026 0.677389 11.080045 204 202 190
0.901951 0.569735 9.086191 187 185 173
0.935177 0.601629 9.530268 189 187 175
0.298677 0.254746 3.545709 50 48 36
0.656927 0.468737 7.093171 33 31 19
0.283559 0.284821 3.769517 111 109 97
0.132564 0.188644 2.217183 146 144 132
0.261751 0.294531 3.770733 149 147 135
0.293913 0.350242 4.437835 187 185 173
0.442593 0.069926 2.423564 178 176 164
0.683876 0.123133 3.971348 177 175 163
1.126146 0.178645 6.400062 79 76 67
1.199544 0.191861 6.842037 118 115 106
0.696040 0.140665 4.193704 146 143 136
1.260747 0.210507 7.284693 188 185 180
1.047717 0.190617 6.181401 192 188 185
0.597462 0.138660 3.753133 184 180 177
2.045287 0.343107 11.924661 28 25 18
0.437199 0.141172 3.092967 174 172 160
0.200303 0.108960 1.767972 168 166 154
0.470409 0.172282 3.537184 97 95 83
0.499325 0.182356 3.758606 202 200 188
0.455708 0.201776 3.761038 203 201 189
0.450256 0.204203 3.761342 181 179 167
0.196778 0.133478 1.991203 32 30 18
0.343946 0.182693 3.098168 155 153 141
0.180249 0.140837 1.992125 193 191 179
0.384831 0.233334 3.764990 192 190 178
0.379378 0.235761 3.765295 188 186 174
0.189996 0.159445 2.214616 33 31 19
1.000222 0.555987 9.529563 17 15 3
0.518795 0.334324 5.318760 45 43 31
0.971785 0.568649 9.531149 148 146 134
1.053229 0.624179 10.418744 204 202 190
1.155554 0.693360 11.528210 195 193 181
0.882648 0.562440 9.090052 189 187 175
1.052336 0.670473 10.864863 186 184 172
1.103796 0.716406 11.531096 126 124 112
0.308501 0.267319 3.769247 33 31 19
0.297597 0.272174 3.769855 206 204 192
0.292145 0.274602 3.770159 179 177 165
0.328455 0.304331 4.214203 30 28 16
0.281241 0.279457 3.770767 95 93 81
0.488902 0.439427 6.212564 18 16 4
0.934061 0.860824 12.209664 184 182 170
0.237624 0.298877 3.773200 158 156 144
0.226720 0.303732 3.773808 173 171 159
-1.609399 1.740859 9.898125 152 143 42
-0.465512 0.497204 2.697239 153 144 43
-1.544242 1.620055 9.002355 152 143 42
-1.083944 1.116782 6.077240 153 144 43
-0.941009 0.961348 5.177133 151 142 41
-1.879586 1.907055 10.359261 146 137 36
-0.428393 0.434781 2.249101 144 135 34
-1.605855 1.601591 8.559722 152 143 42
0.779831 0.073618 3.967187 178 176 164
1.927194 0.104023 9.257689 177 175 163
0.863674 0.081392 4.408719 177 175 163
1.012352 0.173063 5.962153 41 38 31
1.043821 0.181604 6.183501 81 78 73
0.994704 0.180920 5.963137 73 70 65
1.025499 0.189762 6.184523 20 17 12
0.261721 0.101330 1.988148 129 126 117
0.709269 0.195246 4.863536 187 185 173
0.765465 0.215330 5.306610 196 194 182
0.228664 0.116049 1.989991 166 164 152
0.235061 0.135753 2.212738 183 181 169
0.442485 0.201267 3.762896 42 40 28
0.437033 0.203695 3.763200 156 154 142
0.566511 0.258808 4.871497 195 193 181
0.181833 0.136900 1.992603 187 185 173
0.179078 0.138127 1.992757 183 181 169
0.371050 0.210520 3.543776 191 189 177
0.365935 0.212798 3.544061 195 193 181
0.377060 0.230397 3.766545 171 169 157
0.397740 0.243742 3.988495 28 26 14
0.649903 0.356995 6.205468 74 72 60
0.515473 0.326638 5.320551 59 57 45
0.927748 0.549023 9.313424 55 53 41
1.007607 0.603676 10.201385 170 168 156
0.295278 0.266810 3.771105 185 183 171
0.289826 0.269238 3.771409 112 110 98
0.935562 0.725965 11.097817 79 77 65
0.406102 0.375335 5.326650 154 152 140
0.872172 0.799294 11.547559 193 191 179
0.122228 0.208544 2.442134 191 189 177
-1.869290 1.997366 11.477335 153 144 43
-1.128933 1.171567 6.527770 152 143 42
-0.457292 0.466573 2.474451 148 139 38
-1.154794 1.160528 6.306109 149 140 39
-0.836249 0.838276 4.503516 155 146 45
-0.925313 0.923037 4.954690 146 137 36
-1.390464 1.378223 7.434769 153 144 43
-0.484725 0.478788 2.475981 148 139 38
0.318400 0.072862 1.985553 184 182 170
1.559814 0.140527 8.165165 188 186 174
1.341163 0.260037 8.400531 99 97 85
1.439977 0.282512 9.064540 173 171 159
1.426433 0.288543 9.065295 62 60 48
0.538304 0.152208 3.758673 24 22 10
0.532852 0.154635 3.758977 150 148 136
0.527400 0.157063 3.759281 189 187 175
0.926410 0.289605 6.861450 198 196 184
0.456523 0.188620 3.763234 187 185 173
0.451071 0.191048 3.763538 129 127 115
1.489733 0.481930 11.293494 16 14 2
0.440166 0.195903 3.764146 127 125 113
0.434714 0.198331 3.764450 190 188 176
0.423810 0.203186 3.765058 195 193 181
0.360311 0.187144 3.322253 186 184 172
0.418435 0.227736 3.988531 203 201 189
0.385646 0.220178 3.767186 191 189 177
0.401067 0.235469 3.989499 178 176 164
0.363837 0.229888 3.768403 18 16 4
0.383700 0.243202 3.990468 33 31 19
0.278001 0.201635 3.103671 130 128 116
0.122811 0.159948 1.996461 187 185 173
0.287508 0.263874 3.772659 190 188 176
0.565056 0.516967 7.551120 195 193 181
-1.549006 1.635502 9.454395 153 144 43
-1.856675 1.949748 11.256936 146 137 36
-1.047330 1.079776 6.078826 149 140 39
-0.373051 0.380728 2.024113 149 140 39
-1.362537 1.353063 7.435441 152 143 42
-0.935486 0.919193 4.956725 154 145 44
0.518002 0.067805 2.867957 178 176 164
1.024436 0.081694 5.295380 179 177 165
0.694096 0.076445 3.751106 180 178 166
0.734382 0.080270 3.972102 179 177 165
0.728593 0.082847 3.972424 179 177 165
1.579018 0.117669 8.166601 180 178 166
1.155121 0.110553 6.181061 182 180 168
0.431533 0.128066 3.096022 54 52 40
0.454204 0.183256 3.764484 192 190 178
0.443300 0.188112 3.765092 48 46 34
0.437848 0.190539 3.765396 186 184 172
0.308726 0.160984 2.879628 186 184 172
1.268791 0.451650 10.193081 177 175 163
0.348724 0.186698 3.323882 131 129 117
0.399683 0.207532 3.767524 174 172 160
0.388779 0.212387 3.768132 130 128 116
0.410184 0.224618 3.990181 196 194 182
0.377875 0.217242 3.768740 204 202 190
0.398605 0.229773 3.990827 187 185 173
0.418662 0.242605 4.212950 182 180 168
0.356066 0.226952 3.769957 86 84 72
0.468160 0.438181 6.442612 197 195 183
0.494844 0.469824 6.887608 128 126 114
-1.993266 2.078161 12.160929 151 142 41
