ply
format ascii 1.0
element vertex 1204
property float x
property float y
property float z
property uchar red
property uchar green
property uchar blue
end_header
-2.575289 1.849406 8.791316 238 236 224
-2.992452 2.241953 10.615237 232 230 218
-0.974955 0.435277 2.184770 226 224 212
-0.700755 0.191289 1.045610 229 227 215
-0.909104 0.387586 1.957584 236 234 222
-2.698037 2.054303 9.708308 230 228 216
-0.782099 0.291731 1.502935 229 227 215
-0.856895 1.261745 5.657388 184 182 169
-0.921855 1.635369 7.270906 232 230 218
-0.949098 1.741247 7.731402 206 204 192
-1.016179 1.951736 8.651657 190 188 176
-1.201992 2.476140 10.951231 188 186 174
-0.883481 0.231885 1.264677 224 221 212
-0.806177 0.184963 1.038266 227 225 213
-1.102157 0.428670 2.175629 223 221 209
-0.911529 0.283756 1.493975 225 223 211
-3.480238 2.431981 11.504876 223 221 209
-3.516551 2.483022 11.733690 229 227 215
-0.986847 0.385566 1.951445 228 226 214
-1.096723 0.483904 2.406890 225 223 211
-0.974961 0.386760 1.952142 229 227 215
-0.911891 0.338408 1.724896 232 230 218
-1.019810 0.436943 2.180455 227 225 213
-2.816489 2.006469 9.465300 230 228 216
-1.000807 0.438852 2.181569 228 226 214
-2.521946 1.817307 8.558795 235 233 221
-2.504654 1.819044 8.559808 238 236 224
-0.803159 0.294643 1.500327 234 232 220
-0.692355 0.196398 1.044937 230 228 216
-2.313335 1.728888 8.109138 231 229 217
-0.782518 0.296717 1.501537 235 233 221
-1.061627 1.581199 7.027794 201 199 186
-0.411339 0.279319 1.292351 195 193 180
-0.406570 0.279798 1.292631 187 185 172
-0.707669 1.069875 4.739118 180 178 166
-0.434140 0.441094 1.983842 240 238 226
-0.654627 1.020516 4.511284 200 198 186
-0.374843 0.337674 1.525433 188 186 174
-0.867910 1.710038 7.501034 191 189 177
-0.315865 0.234222 1.067005 189 187 175
-0.869561 0.237930 1.264223 226 223 214
-0.967859 0.338194 1.720138 225 223 211
-1.022988 0.387726 1.947745 226 224 212
-1.058331 0.439245 2.176512 229 227 215
-3.107333 2.160832 10.135749 229 227 215
-0.798024 0.245117 1.268417 228 226 214
-2.666575 1.874694 8.776554 229 227 215
-0.895686 0.345445 1.724369 224 222 210
-0.718977 0.197989 1.042212 233 231 219
-2.907024 2.180956 10.147490 232 230 218
-3.245159 2.532474 11.743538 230 228 216
-2.739659 2.087631 9.695623 230 228 216
-2.613920 1.990124 9.241317 229 227 215
-0.736026 0.251346 1.272051 230 228 216
-0.447508 0.335402 1.519800 200 197 182
-1.277408 2.069328 9.088818 195 191 179
-1.184124 1.913490 8.401771 194 190 178
-1.167224 1.915188 8.402762 190 188 175
-1.053174 1.706367 7.486094 189 187 174
-0.368754 0.233175 1.062740 178 176 163
-0.683584 0.972522 4.276022 185 183 170
-1.199806 2.242333 9.785881 194 192 180
-0.368804 0.288239 1.293575 251 249 237
-0.342487 0.235813 1.064280 219 217 205
-0.354497 0.289677 1.294414 188 186 174
-0.354620 0.344734 1.525245 182 180 168
-1.177042 2.685178 11.633922 186 184 172
-0.884255 0.241101 1.262093 226 223 214
-1.007172 0.339654 1.716356 226 223 214
-1.065072 0.389288 1.943697 222 219 210
-0.869948 0.242538 1.262932 224 221 212
-1.165072 0.490144 2.399304 224 222 210
-0.957206 0.344674 1.719285 228 226 214
-3.348840 2.322439 10.808464 226 224 212
-0.881404 0.296839 1.492994 226 224 212
-3.343982 2.378379 11.039483 230 228 216
-2.972199 2.083024 9.676871 223 221 209
-0.807950 0.248767 1.266566 229 227 215
-3.086026 2.237941 10.362401 225 223 211
-3.236001 2.389227 11.045812 225 223 211
-0.845281 0.300468 1.495112 226 224 212
-2.576629 1.845510 8.546386 232 230 218
-2.431578 1.749180 8.093420 230 228 216
-2.579596 1.900662 8.776946 231 229 217
-0.819479 0.303060 1.496624 234 232 220
-3.138888 2.454434 11.282239 228 226 214
-2.794890 2.156288 9.917998 233 231 219
-2.135925 1.557079 7.187813 232 230 218
-2.768435 2.214397 10.150282 231 229 217
-2.851828 2.316921 10.606862 235 233 221
-2.420451 1.916651 8.786275 231 229 217
-0.488592 0.447205 1.977487 199 195 183
-1.030100 1.668176 7.252631 197 195 182
-1.158723 1.987960 8.629497 177 175 162
-0.879311 1.461521 6.338533 165 163 151
-0.865933 1.462865 6.339317 235 233 221
-1.164813 2.320055 10.013544 190 188 176
-0.750029 1.308156 5.653909 186 184 172
-0.320954 0.242242 1.064377 188 186 174
-0.778139 1.527136 6.575197 184 182 170
-0.884643 0.245709 1.260801 225 222 213
-0.933427 0.296640 1.488572 225 222 213
-0.802866 0.198092 1.034965 226 223 214
-0.798488 0.198532 1.035221 225 222 213
-0.856028 0.248584 1.262478 224 222 210
-2.915366 2.051656 9.444449 228 226 214
-0.982351 0.403390 1.946964 226 224 212
-3.237754 2.410093 11.039963 222 220 208
-3.159719 2.362101 10.813907 228 226 214
-2.521984 1.812015 8.314358 235 233 221
-2.930308 2.217652 10.135464 232 230 218
-1.037829 0.509481 2.404972 228 226 214
-0.760646 0.258166 1.268069 230 228 216
-2.527983 1.923077 8.775266 228 226 214
-3.043389 2.429620 11.051355 230 228 216
-2.790092 2.231738 10.143682 233 231 219
-2.336082 1.830692 8.325254 237 235 223
-0.984023 0.514886 2.408126 230 228 216
-0.395731 0.238995 1.058829 196 192 180
-0.443186 0.345893 1.517307 194 190 178
-0.463550 0.399679 1.746743 187 183 171
-1.362802 2.319300 9.996713 189 185 173
-1.120484 1.841153 7.935246 198 194 182
-0.360709 0.242514 1.060881 168 166 153
-1.176609 2.170509 9.315736 209 207 195
-0.391581 0.351077 1.520332 200 198 186
-1.166407 2.339030 10.008224 188 186 174
-1.125939 2.287264 9.779966 187 185 173
-0.984066 1.966523 8.404502 183 181 169
-0.325687 0.246032 1.062934 186 184 172
-1.148555 0.448696 2.166166 227 224 215
-1.013625 0.349825 1.713023 228 225 216
-0.870723 0.251754 1.260348 227 224 215
-1.116883 0.451878 2.168023 227 224 215
-0.913205 0.303700 1.488384 226 224 212
-3.394693 2.359155 10.794491 226 224 212
-0.827801 0.256067 1.262864 226 224 212
-3.347488 2.420111 11.027783 224 222 210
-3.209037 2.321594 10.574847 225 223 211
-3.340345 2.477043 11.258728 225 223 211
-2.974834 2.176482 9.896997 221 219 207
-2.784607 2.026952 9.216570 229 227 215
-0.396087 0.243225 1.057643 186 182 170
-0.391709 0.243665 1.057899 182 178 166
-0.483614 0.459286 1.974616 199 195 183
-0.675862 0.889681 3.807554 199 195 183
-0.398581 0.299188 1.288022 186 184 171
-0.417803 0.353471 1.517422 172 170 157
-0.374735 0.301584 1.289420 208 206 194
-0.355659 0.303501 1.290538 184 182 170
-0.566978 0.900620 3.813936 186 184 172
-0.892577 1.823541 7.713790 182 180 168
-0.880029 1.881015 7.945051 184 182 170
-0.997421 0.356862 1.712496 225 223 211
-0.913624 0.308686 1.486986 227 225 213
-3.094266 2.183619 9.884770 224 222 210
-3.349242 2.440978 11.021933 226 224 212
-2.957640 2.140751 9.662357 227 225 213
-3.434715 2.602175 11.708188 232 230 218
-0.444024 0.355865 1.514511 183 181 168
-0.438863 0.356383 1.514814 183 181 166
-0.736067 1.005664 4.262453 194 191 176
-0.502959 0.519728 2.202322 189 186 171
-1.051117 1.822936 7.700312 159 159 147
-0.988910 1.715996 7.243115 246 246 234
-0.905419 1.554599 6.556744 207 205 193
-0.433281 0.526729 2.206406 184 180 169
-0.688373 1.236835 5.186936 182 178 167
-0.881035 0.260012 1.257205 227 225 213
-0.812687 0.209902 1.030894 228 226 214
-0.975665 0.364457 1.712294 226 224 212
-0.908882 0.314191 1.485890 228 226 214
-3.235614 2.302507 10.331894 223 221 209
-0.888240 0.316264 1.487100 225 223 211
-1.001628 0.418825 1.941089 225 223 211
-3.459333 2.621889 11.700686 225 223 211
-0.914595 0.370593 1.715873 227 225 213
-0.909043 0.371151 1.716199 227 225 213
-0.423201 0.306009 1.284041 173 169 157
-0.444443 0.360851 1.513113 182 179 164
-0.413662 0.306967 1.284600 191 188 173
-0.394586 0.308883 1.285718 138 136 123
-0.389817 0.309363 1.285998 255 255 243
-0.555425 0.748534 3.118831 185 183 170
-0.339887 0.257403 1.058607 188 184 173
-0.988182 2.015511 8.390769 184 180 169
-0.326753 0.258722 1.059377 185 181 170
-1.020529 0.365360 1.708186 228 226 214
-0.950585 0.315029 1.482073 227 225 213
-0.945424 0.315548 1.482375 222 220 208
-0.940264 0.316066 1.482678 223 221 209
-0.808665 0.214572 1.029965 223 221 209
-3.582472 2.574346 11.457195 227 225 213
-3.257694 2.320188 10.325165 229 227 215
-0.893820 0.320732 1.485400 226 224 212
-3.216850 2.324291 10.327559 227 225 213
-3.255733 2.377742 10.555493 224 222 210
-2.881433 2.071201 9.196152 225 223 211
-3.506722 2.639314 11.691849 223 221 209
-3.425820 2.590084 11.466377 226 224 212
-0.852536 0.324880 1.487820 224 222 210
-0.465353 0.421136 1.740728 183 180 165
-0.802419 1.190278 4.943959 39 40 26
-0.424220 0.367911 1.512925 149 150 136
-0.394973 0.313491 1.284426 253 251 238
-0.724354 1.140763 4.718321 186 182 170
-0.431574 0.481887 1.972921 182 178 167
-1.278882 2.748420 11.362006 181 177 166
-0.919463 1.981524 8.160086 177 175 163
-0.891348 0.268270 1.254062 222 220 208
-0.872271 0.270186 1.255180 221 219 207
-0.993221 0.373513 1.708310 224 222 210
-0.965463 0.376301 1.709937 225 223 211
-3.259352 2.339920 10.319633 225 223 211
-3.178810 2.290273 10.094245 226 224 212
-3.138748 2.294297 10.096593 229 227 215
-0.760865 0.223640 1.031601 225 223 211
-3.040131 2.246466 9.872264 221 219 207
-3.132542 2.410398 10.557175 224 222 210
-0.928109 1.419353 5.854093 46 42 30
-0.384375 0.261464 1.053669 29 27 15
-1.301334 2.305678 9.513965 164 164 154
-0.366864 0.263223 1.054696 193 190 175
-0.432493 0.429846 1.741177 190 184 168
-0.669473 1.041165 4.258488 184 180 169
-0.340597 0.265862 1.056235 182 178 167
-0.713984 1.440865 5.866644 180 178 166
-0.891735 0.272878 1.252770 223 221 209
-0.813754 0.222592 1.027336 226 224 212
-0.804998 0.223472 1.027849 225 223 211
-3.569146 2.561175 11.216060 224 222 210
-0.848813 0.277190 1.255286 225 223 211
-3.342367 2.409598 10.539337 223 221 209
-3.339687 2.467988 10.769500 221 219 207
-0.796353 0.282460 1.258361 223 221 209
-0.450860 0.375290 1.508617 194 190 178
-0.445700 0.375809 1.508920 61 54 44
-0.414824 0.320791 1.280725 32 28 19
-0.460703 0.432422 1.738046 142 139 132
-0.405286 0.321749 1.281284 248 249 243
-0.913671 1.549316 6.311597 185 181 170
-0.715443 1.162391 4.713181 184 180 169
-0.438482 0.492774 1.969353 181 177 166
-0.367133 0.325582 1.283520 181 177 166
-0.368293 0.383586 1.513457 181 177 166
-0.343287 0.327978 1.284918 180 178 166
-1.175048 2.743579 11.126385 176 174 162
-0.429063 0.609961 2.429915 179 177 165
-0.946681 0.330506 1.478182 222 220 208
-0.999675 0.383683 1.704976 222 220 208
-3.739970 2.682440 11.659998 226 224 212
-0.853969 0.281319 1.253715 222 220 208
-0.787842 0.229461 1.027690 222 220 208
-3.344057 2.429708 10.533699 229 227 215
-3.543165 2.643711 11.441633 226 224 212
-0.770331 0.231220 1.028716 224 222 210
-3.439007 2.595673 11.217837 228 226 214
-0.869275 0.338282 1.482719 228 226 214
-3.235385 2.499128 10.769970 222 220 208
-3.021816 2.345080 10.092786 232 230 218
-0.451279 0.380277 1.507220 101 99 87
-0.419980 0.324920 1.279153 22 19 12
-0.466706 0.437228 1.736216 113 110 105
-0.425477 0.382869 1.508732 188 187 182
-0.542447 0.897630 3.570985 180 178 166
-0.823220 0.230172 1.024451 222 220 208
-0.810087 0.231491 1.025221 223 221 209
-3.572716 2.603664 11.204148 224 222 210
-3.550729 2.605873 11.205437 222 220 208
-0.961263 0.392952 1.705750 226 224 212
-3.424551 2.559667 10.983036 222 220 208
-0.950160 0.394067 1.706401 230 228 216
-3.063504 2.360409 10.085011 226 224 212
-3.330855 2.627963 11.218325 226 224 212
-0.797127 0.291676 1.255778 229 227 215
-0.770437 1.059833 4.244701 19 19 7
-0.394197 0.273274 1.049598 83 83 75
-0.389819 0.273714 1.049855 238 237 232
-0.385442 0.274154 1.050112 221 221 213
-0.381064 0.274593 1.050368 193 193 185
-0.425896 0.387855 1.507334 185 182 175
-0.359175 0.276793 1.051651 180 176 167
-0.377446 0.333840 1.280377 178 174 165
-0.788126 1.529117 6.082039 178 176 164
-0.452117 0.390249 1.504424 46 48 37
-1.206816 2.033083 8.121276 235 236 228
-0.436636 0.391804 1.505331 191 191 183
-0.431475 0.392322 1.505634 181 178 169
-0.450952 0.449630 1.734185 177 175 163
-0.405673 0.394915 1.507146 178 174 165
-0.649994 1.022273 4.019445 180 176 167
-0.751973 1.308347 5.161931 180 176 167
-0.521577 0.738854 2.878509 178 174 163
-0.400986 0.454650 1.737114 168 166 154
-0.333264 0.283661 1.052005 178 176 164
-0.324508 0.284541 1.052518 170 168 156
-0.334911 0.342760 1.281601 168 166 154
-0.452536 0.395235 1.503026 214 215 209
-0.390530 0.282174 1.047483 196 196 188
-0.431894 0.397308 1.504236 182 178 169
-1.142121 2.055669 8.120674 176 172 163
-0.618977 0.974966 3.789156 175 171 162
-0.346752 0.286572 1.050049 173 169 160
-0.579292 0.919308 3.561893 179 177 165
-0.354374 0.345451 1.279191 172 170 158
-1.051903 1.720659 6.744663 197 194 187
-0.416760 0.343831 1.274265 183 179 170
-0.411991 0.344310 1.274545 178 174 165
-0.382130 0.287283 1.046811 178 174 165
-0.451853 0.460358 1.731177 176 172 163
-0.416832 0.403850 1.503745 176 173 164
-0.378607 0.347664 1.276502 177 173 164
-0.351486 0.290362 1.048607 173 169 160
-0.364300 0.349101 1.277340 175 173 161
-0.740741 1.391760 5.385995 167 165 153
-1.227817 2.783464 10.865071 173 171 159
-0.340454 0.351497 1.278738 166 164 152
-0.666884 0.867020 3.322758 200 200 192
-0.421916 0.347959 1.272694 190 185 179
-0.417147 0.348439 1.272973 178 174 165
-0.412378 0.348918 1.273253 180 176 167
-0.402840 0.349876 1.273812 173 171 159
-0.388533 0.351313 1.274651 173 170 161
-0.406930 0.409873 1.502953 173 169 160
-0.401770 0.410391 1.503255 173 169 160
-0.396609 0.410910 1.503557 174 170 161
-0.391449 0.411428 1.503860 173 169 160
-0.932591 1.927667 7.436028 171 169 157
-0.325574 0.297231 1.048961 167 165 153
-0.360486 0.414539 1.505675 166 164 152
-0.855917 1.935370 7.440523 167 165 153
-0.417535 0.353046 1.271682 181 174 166
-0.407996 0.354005 1.272241 174 170 159
-0.955076 1.757982 6.742801 172 170 158
-0.509108 0.708582 2.641971 170 166 157
-0.964506 1.939402 7.430077 168 166 154
-0.330308 0.301021 1.047518 165 163 151
-0.341229 0.360713 1.276154 164 162 150
-0.400708 0.298213 1.042227 179 176 169
-1.326857 2.407304 9.238133 175 168 160
-0.413153 0.358134 1.270669 173 169 158
-0.433570 0.417253 1.498644 171 167 156
-0.874731 1.474000 5.597882 179 177 165
-0.862527 1.475226 5.598597 167 165 153
-0.370063 0.301292 1.044023 172 170 158
-0.649145 1.007300 3.777729 171 169 157
-1.224811 2.539897 9.702458 169 167 155
-0.656963 1.128855 4.235614 165 163 151
-0.517117 0.775882 2.868779 162 160 148
-0.637250 1.130836 4.236770 168 166 154
-0.338008 0.379624 1.271266 158 156 144
-0.447366 0.742523 2.638014 154 152 140
-0.305463 0.320579 1.044314 152 150 137
-0.296707 0.321459 1.044828 148 146 133
-0.602812 1.661621 6.061796 146 144 131
-0.269693 0.448801 1.504130 145 141 129
-1.243699 1.547193 5.792019 181 179 167
-0.809937 0.838423 3.072379 188 186 174
-0.489685 0.306336 1.032351 179 177 165
-0.519622 0.366025 1.259352 178 176 164
-1.736088 2.500855 9.423245 189 187 175
-1.110576 1.497871 5.571067 172 168 157
-0.549389 0.488425 1.715118 163 159 148
-1.229883 1.799363 6.707851 156 152 141
-0.507493 0.429939 1.488818 146 142 130
-0.502332 0.430457 1.489121 123 119 107
-1.787599 2.997245 11.250269 38 35 20
-0.728960 0.909254 3.305881 71 67 55
-0.476530 0.433049 1.490633 177 175 162
-0.527476 0.553322 1.945158 166 164 151
-0.466209 0.434086 1.491238 167 165 153
-0.727279 1.599075 5.822289 151 149 137
-0.333627 0.384711 1.270254 148 146 134
-0.712654 1.725936 6.280657 152 150 137
-0.361070 0.570040 1.954912 146 147 133
-0.815820 2.530614 9.248431 145 143 130
-0.797355 2.532470 9.249513 145 143 128
-0.257663 0.329647 1.045951 142 138 126
-0.723492 2.539890 9.253843 148 144 132
-0.423612 1.190714 4.238800 141 137 125
-0.661761 2.420701 8.799950 144 140 128
-0.680105 2.606945 9.485141 146 142 130
-0.498796 0.309687 1.030652 181 179 167
-1.407771 1.858367 6.922307 181 179 167
-0.485663 0.311006 1.031422 185 183 171
-1.092474 1.385427 5.111577 179 177 165
-1.047489 1.326870 4.885563 175 173 161
-0.566495 0.492116 1.712638 174 170 159
-0.560943 0.492674 1.712963 172 168 157
-1.213587 1.751722 6.476386 166 162 151
-1.811371 3.016281 11.243025 45 41 29
-0.467549 0.375903 1.261135 42 39 24
-1.708096 2.900502 10.791775 228 225 210
-0.428752 0.316724 1.034758 210 207 192
-1.001728 1.520698 5.574199 178 174 162
-0.780724 1.101363 3.986594 172 168 156
-0.708825 1.550125 5.591367 145 143 131
-0.928112 2.537325 9.236935 147 145 132
-0.405819 0.760566 2.636661 147 145 132
-0.368905 0.701198 2.410173 141 139 126
-0.362488 0.827996 2.867852 148 144 132
-0.421054 1.137497 4.007676 143 139 127
-0.588604 2.066818 7.427625 144 140 128
-0.854672 0.912781 3.294099 181 179 167
-0.589152 0.495249 1.709832 177 175 163
-1.103763 1.458881 5.336423 179 177 165
-0.698196 0.738127 2.617629 176 172 161
-0.723501 0.799043 2.844693 171 167 156
-0.844113 1.040759 3.751812 169 165 154
-0.708484 0.800552 2.845574 153 149 138
-1.825884 2.972788 11.007775 115 111 100
-0.467936 0.380511 1.259843 185 182 167
-1.102796 1.712811 6.250669 184 181 166
-0.829322 1.169161 4.209774 170 166 154
-0.922077 1.413675 5.118526 170 166 154
-0.467047 0.444058 1.488442 168 164 152
-0.315285 0.332389 1.040244 149 147 135
-0.293396 0.334588 1.041527 142 140 127
-0.507007 1.138084 4.000119 145 143 130
-0.280262 0.335907 1.042296 142 140 127
-0.933659 3.125884 11.288620 145 141 130
-0.334854 0.647714 2.181832 140 136 125
-0.258095 0.401593 1.272143 142 138 126
-0.248557 0.402551 1.272702 148 144 132
-0.477411 1.648724 5.830231 145 141 129
-0.351917 1.026749 3.552115 136 132 120
-0.245148 0.466352 1.501449 139 133 121
-0.224711 0.404947 1.274100 142 134 123
-0.289839 0.906069 3.098660 149 141 130
-0.325343 1.283252 4.467861 148 138 128
-0.270382 1.161857 4.013989 149 143 131
-0.212999 1.040706 3.560258 146 142 130
-0.324887 2.679379 9.495926 143 139 127
-0.212903 1.675298 5.845735 145 141 129
-0.882247 0.981929 3.518719 179 177 165
-0.560354 0.439712 1.481600 178 176 164
-0.520784 0.379848 1.255476 173 171 159
-0.982026 1.227263 4.426643 172 170 158
-0.473240 0.320785 1.029820 169 167 155
-0.561844 0.503402 1.709956 163 159 148
-0.780726 0.928289 3.296227 160 156 145
-0.455729 0.322545 1.030846 137 133 122
-0.889261 1.172743 4.203637 99 95 84
-0.442596 0.323864 1.031616 95 91 79
-0.605398 0.690545 2.392732 169 165 153
-0.477787 0.448008 1.486440 169 165 153
-1.716544 3.196334 11.693766 167 163 151
-0.813492 1.946430 6.949395 150 148 136
-1.133331 3.127248 11.271065 143 141 128
-0.428326 0.772174 2.631554 147 145 132
-0.432675 0.899416 3.088185 141 137 125
-1.001407 3.140502 11.278798 140 136 124
-0.604390 1.648239 5.819436 142 138 127
-0.312015 0.528501 1.724599 142 138 127
-0.263107 0.341896 1.042137 136 132 121
-0.303086 0.593238 1.953566 132 128 116
-0.696802 2.724227 9.697551 139 135 123
-0.232462 0.344975 1.043933 135 131 119
-0.601698 2.414584 8.560910 126 122 110
-0.220330 0.410034 1.273087 143 133 123
-0.506922 2.487946 8.794909 141 131 121
-0.480657 2.426745 8.568005 148 138 128
-0.545276 3.058648 10.848648 147 137 127
-0.524071 3.060778 10.849891 148 140 129
-0.229048 0.792195 2.643234 147 141 129
-0.365460 2.502158 8.803200 144 140 128
-0.342325 2.440642 8.576113 143 139 127
-0.299006 2.572673 9.035539 141 137 125
-0.156566 0.544119 1.733711 146 142 130
-0.144024 0.417700 1.277560 148 144 132
-0.856018 0.928803 3.289607 178 176 164
-0.491107 0.323256 1.027608 175 173 161
-2.036601 3.057924 11.212269 169 167 155
-0.754754 0.810535 2.838865 173 171 159
-1.790673 2.697307 9.856651 170 168 156
-0.765105 0.873716 3.066597 170 166 155
-0.529810 0.447809 1.482017 161 157 146
-1.006055 1.363275 4.879185 145 141 130
-0.678001 0.754025 2.615025 116 112 101
-0.921372 1.243342 4.427471 39 35 24
-0.447329 0.327654 1.030174 47 43 31
-0.442951 0.328094 1.030430 239 235 223
-0.672161 0.818833 2.843706 178 174 162
-0.488527 0.451957 1.484437 170 166 154
-0.478206 0.452994 1.485042 163 159 147
-1.662815 3.095477 11.234178 164 160 148
-0.320373 0.340409 1.037615 139 137 125
-1.131135 3.213113 11.493681 142 138 126
-0.643200 1.656613 5.813809 141 138 123
-0.922945 2.848704 10.135851 138 134 122
-0.306914 0.534423 1.723421 134 130 119
-0.385918 0.911811 3.088823 134 130 118
-0.698105 2.550189 9.007336 123 119 107
-0.705086 2.677929 9.463604 126 122 110
-0.649821 2.490819 8.781827 129 125 113
-0.643883 2.555636 9.010514 125 121 109
-0.603102 2.431292 8.556226 120 116 104
-0.479057 2.186870 7.650142 142 132 122
-0.445320 2.061818 7.195441 147 137 127
-0.464770 2.445189 8.564335 145 135 125
-0.288824 1.242670 4.236209 146 138 127
-0.370602 2.069325 7.199821 145 139 127
-0.349001 2.007274 6.972748 146 142 130
-0.227924 0.927684 3.098084 141 137 125
-0.365663 2.712029 9.483499 143 139 127
-0.397728 3.351016 11.765009 144 140 128
-0.294154 2.783434 9.716030 140 136 124
-0.236844 2.403867 8.349356 146 142 130
-0.785397 0.814772 2.835071 174 172 160
-0.883657 0.998707 3.514016 173 171 159
-2.095239 3.138059 11.431215 170 168 156
-2.107333 3.201446 11.658741 171 169 157
-0.482707 0.328365 1.026935 171 169 157
-0.773646 0.880555 3.063994 170 168 156
-0.469574 0.329685 1.027705 170 166 155
-0.465196 0.330125 1.027962 149 145 134
-0.460818 0.330564 1.028218 128 124 113
-0.519908 0.453832 1.481224 67 63 52
-0.881005 1.192780 4.198875 202 198 186
-0.650111 0.763762 2.614766 182 179 164
-1.834092 3.228897 11.674757 167 163 151
-0.459560 0.395293 1.256527 165 161 149
-0.483785 0.457461 1.483341 165 161 149
-1.479747 2.618476 9.413179 162 158 146
-0.614525 0.767337 2.616852 162 158 146
-0.468304 0.459017 1.484249 157 153 141
-0.948025 2.348885 8.303172 141 139 127
-0.546891 1.097143 3.761990 144 142 130
-1.008326 2.665837 9.440812 135 133 121
-0.602460 1.349968 4.671672 145 143 130
-0.627896 1.476617 5.126650 142 138 126
-0.255062 0.351236 1.040278 127 124 109
-0.477495 1.427125 4.907231 122 119 104
-0.643821 2.379447 8.321003 128 125 110
-0.536195 2.067249 7.186138 118 115 100
-0.221104 0.419250 1.270504 121 113 102
-0.216335 0.419729 1.270783 132 124 113
-0.408392 2.015487 6.965394 147 137 127
-0.513427 3.361579 11.752168 141 135 123
-0.470589 3.172076 11.069974 145 141 129
-0.442695 3.110276 10.843374 141 137 125
-0.167506 0.360032 1.045411 142 138 126
-0.383740 2.922393 10.162126 140 136 124
-0.358585 2.860318 9.935366 142 138 126
-0.154373 0.361352 1.046180 140 136 124
-0.301379 3.253678 11.308127 143 139 127
-0.282559 3.320171 11.537465 140 136 124
-2.119435 3.157433 11.423842 171 169 157
-0.561611 0.454671 1.477406 166 164 152
-1.522595 2.177661 7.808735 165 163 151
-1.131225 1.502162 5.322239 168 166 154
-1.389192 1.996113 7.132163 167 165 153
-0.474307 0.333475 1.026262 166 164 152
-1.589884 2.430834 8.717314 159 155 144
-0.530648 0.457781 1.479221 130 126 115
-0.493331 0.396547 1.253278 96 92 81
-0.672040 0.768493 2.611587 117 113 102
-0.479023 0.397984 1.254117 232 228 216
-0.443662 0.336554 1.028059 177 173 161
-0.620488 0.708689 2.386478 171 168 153
-1.835941 3.250898 11.668589 161 157 145
-0.724708 0.958152 3.292891 158 154 142
-0.600311 0.710716 2.387660 160 156 144
-0.679491 0.897712 3.067411 156 152 140
-0.558615 0.649922 2.161974 152 148 136
-0.934449 2.431699 8.527601 137 135 123
-0.529480 1.107733 3.760596 142 138 126
-0.755310 1.929829 6.713057 140 134 120
-0.493655 1.046349 3.534565 140 134 120
-0.302566 0.415712 1.264460 138 132 116
-0.418800 0.923902 3.082691 142 136 120
-0.870806 2.827994 9.900115 134 128 112
-0.264173 0.354586 1.038579 121 118 101
-0.408701 1.249834 4.223936 110 107 90
-0.245337 0.421462 1.267814 111 108 91
-0.687849 3.041325 10.595231 109 106 89
-0.420877 1.638511 5.592006 111 108 93
-0.213436 0.554634 1.725945 139 131 120
-0.395476 2.160930 7.418540 139 131 120
-0.280568 1.262707 4.231447 137 131 119
-0.411335 3.004121 10.383308 133 129 117
-0.324349 2.233060 7.650840 132 128 116
-0.355885 3.399593 11.755342 133 129 117
-1.143725 1.447052 5.090336 175 173 161
-0.531871 0.397322 1.249750 170 168 156
-1.051025 1.325635 4.639717 164 162 150
-1.282145 1.759969 6.222355 159 157 145
-1.200475 1.637444 5.771089 160 158 146
-0.749074 0.833053 2.833204 163 161 149
-0.931887 1.206875 4.190647 145 141 130
-1.215253 1.766689 6.226276 122 118 107
-0.783419 0.960332 3.287244 40 36 25
-1.697259 2.764100 9.846447 51 47 36
-1.178986 1.835698 6.456428 172 168 156
-0.439640 0.341223 1.027129 160 157 142
-1.360334 2.275031 8.041984 154 150 138
-1.036732 1.653895 5.780687 156 152 140
-0.651465 0.842860 2.838925 154 150 138
-0.643957 0.843614 2.839365 148 144 132
-1.528749 2.846394 10.084350 151 147 135
-0.369721 0.413612 1.259254 147 143 132
-0.581184 1.046015 3.527124 143 139 128
-0.303929 0.354858 1.035084 136 130 116
-0.381766 0.673861 2.170654 137 130 114
-0.435241 0.929948 3.079625 138 132 116
-0.273284 0.357936 1.036880 125 120 101
-0.862826 3.174755 11.035489 119 116 97
-0.546340 1.833892 6.265484 114 111 92
-0.267747 0.685316 2.177337 105 102 85
-0.399780 1.587157 5.361969 96 93 78
-0.378475 1.523933 5.135191 114 108 94
-0.338213 1.397249 4.681498 120 114 102
-0.517125 3.405580 11.739832 132 126 114
-0.480849 3.278495 11.285905 130 126 114
-0.304712 2.184991 7.419779 136 132 120
-0.318154 2.575829 8.787150 131 127 115
-0.291661 2.447761 8.332650 135 131 119
-1.251880 1.644553 5.764724 165 163 151
-0.885771 1.023874 3.506960 165 163 151
-0.527489 0.402409 1.248737 161 159 147
-0.764701 0.838799 2.830290 160 156 145
-0.723015 0.777241 2.604811 158 154 143
-0.817256 0.965012 3.283054 159 155 144
-0.708781 0.778672 2.605645 149 145 134
-0.536647 0.467235 1.476123 130 126 115
-0.531486 0.467753 1.476425 66 62 51
-0.457506 0.343694 1.024917 176 172 160
-0.635032 0.720335 2.382046 169 165 153
-0.444373 0.345013 1.025687 161 157 145
-1.122692 1.789024 6.228141 157 153 141
-1.474107 2.608417 9.170533 152 148 136
-1.771328 3.301762 11.660257 151 147 135
-0.413030 0.413908 1.255446 150 146 134
-0.527420 0.731146 2.388353 145 141 129
-0.593877 0.921707 3.068225 145 141 129
-0.369951 0.352490 1.030049 150 146 134
-0.356817 0.353810 1.030819 147 143 132
-0.576816 0.989167 3.297147 145 141 130
-0.348062 0.354689 1.031332 144 140 129
-0.658246 1.375463 4.659908 149 145 134
-0.406532 0.611799 1.939594 135 131 120
-0.321795 0.357328 1.032872 134 130 119
-0.336724 0.421574 1.259919 137 133 122
-0.358683 0.550860 1.714477 129 125 113
-0.495065 1.063127 3.529861 132 129 114
-0.256128 0.363925 1.036721 116 114 93
-0.332373 0.750741 2.399786 116 114 93
-0.534380 1.782383 6.034702 112 110 89
-0.318922 0.752093 2.400574 110 107 88
-0.293598 0.688891 2.174136 103 100 81
-0.402910 1.401115 4.674875 76 73 58
-0.242502 0.496786 1.493364 75 71 59
-0.240125 0.628517 1.949348 64 60 48
-0.228239 0.629711 1.950045 128 125 110
-0.344996 1.735663 5.817881 133 127 115
-0.266482 1.875043 6.278328 132 128 116
-0.284811 2.925138 9.924010 136 132 120
-0.284747 3.319620 11.291548 135 131 119
-0.787835 0.843791 2.826935 163 161 149
-2.124886 3.222301 11.405656 163 161 149
-1.052753 1.346194 4.633953 163 161 149
-1.284317 1.785821 6.215107 160 156 145
-0.826220 0.972189 3.280322 155 151 140
-0.716476 0.784833 2.603300 150 146 135
-0.508800 0.408934 1.248564 136 132 121
-0.702241 0.786263 2.604134 106 102 91
-0.462240 0.347484 1.023475 76 72 60
-1.051412 1.544711 5.317486 176 172 160
-0.690226 0.853598 2.832657 153 149 137
-1.063969 1.675704 5.772386 158 154 142
-0.485461 0.477406 1.477750 155 151 139
-0.853798 1.300055 4.417796 149 145 133
-0.588497 0.731563 2.382983 149 145 133
-0.581772 0.732239 2.383377 148 144 132
-1.360617 2.770065 9.627908 146 142 130
-0.403879 0.419474 1.254714 143 139 127
-0.490480 0.675283 2.160910 143 139 127
-0.626005 1.058431 3.519876 144 140 129
-0.594071 0.995512 3.293929 145 141 130
-0.622428 1.124918 3.747904 137 133 122
-0.348417 0.358919 1.030146 139 135 124
-0.387413 0.487256 1.483497 135 131 120
-0.339662 0.359799 1.030660 137 133 122
-0.544325 1.000510 3.296845 135 131 120
-0.330906 0.360678 1.031173 137 133 122
-0.749078 1.707340 5.790844 134 130 119
-0.317773 0.361998 1.031943 134 130 119
-0.327573 0.427141 1.259186 126 122 110
-0.287128 0.365077 1.033739 122 116 102
-0.367739 0.819869 2.623741 96 90 76
-0.260862 0.367715 1.035278 84 80 68
-0.284204 0.497625 1.489547 73 69 58
-0.511161 2.128006 7.171698 56 52 41
-0.680213 3.433568 11.718153 64 60 51
-0.361216 1.878561 6.269214 133 129 117
-0.191679 0.771430 2.406243 135 131 119
-0.279944 3.209272 10.830342 133 129 117
-0.533032 0.411146 1.245874 165 163 151
-0.528263 0.411625 1.246154 156 154 142
-1.112242 1.483601 5.083063 155 151 140
-0.724171 0.790995 2.600955 152 148 137
-1.732541 2.684946 9.373271 139 135 124
-0.743395 0.855572 2.827542 117 113 102
-0.735886 0.856326 2.827982 44 40 29
-1.022458 1.426113 4.860611 41 37 25
-0.656301 0.731305 2.377219 226 222 210
-1.510685 2.441200 8.475419 189 185 173
-0.674351 0.796000 2.603875 163 159 147
-1.880536 3.268655 11.414023 151 147 135
-0.998026 1.495076 5.089758 152 148 136
-1.805451 3.209690 11.190710 151 147 135
-0.615946 0.735359 2.379584 150 146 134
-1.495571 2.642245 9.159447 155 151 139
-0.456727 0.418812 1.250347 152 148 136
-1.401115 2.518717 8.709555 150 146 134
-0.434276 0.487576 1.479377 146 142 130
-0.404266 0.424082 1.253422 143 139 127
-0.423955 0.488613 1.479982 139 135 123
-0.466927 0.617313 1.932891 141 137 125
-0.465656 0.683949 2.160680 131 127 116
-0.724640 1.456033 4.878068 134 130 119
-0.387832 0.492242 1.482099 132 128 117
-0.745233 1.586982 5.332289 136 132 121
-0.372351 0.493797 1.483007 130 126 115
-0.326884 0.365348 1.030244 125 121 110
-0.342268 0.430311 1.257056 128 124 113
-0.318128 0.366228 1.030757 125 121 110
-0.313750 0.366668 1.031013 127 123 112
-0.596140 1.402435 4.657886 124 120 108
-0.371838 0.626866 1.938465 130 126 114
-0.296239 0.368427 1.032040 118 114 102
-0.304115 0.434144 1.259292 83 79 67
-0.718283 2.454301 8.294151 63 58 54
-0.701383 2.455999 8.295142 65 60 56
-0.633782 2.462790 8.299104 77 72 68
-0.604946 2.399179 8.073080 87 82 78
-0.253661 0.505722 1.489964 89 84 80
-0.383238 1.357315 4.442651 109 105 96
-0.507801 2.209413 7.395632 119 114 108
-0.223040 0.442289 1.264044 130 125 119
-0.333320 1.229313 3.990149 129 125 116
-0.268678 0.836756 2.627654 87 83 74
-0.525704 2.806191 9.444009 54 50 39
-0.362303 1.891487 6.265591 140 136 124
-0.160528 0.382061 1.039994 135 131 119
-0.174273 0.713223 2.177759 134 130 118
-0.340510 3.489883 11.732005 135 131 119
-0.310305 3.359900 11.278347 131 127 115
-0.288318 3.362109 11.279636 126 122 110
-0.879204 1.049913 3.500413 149 145 134
-0.827566 0.988211 3.275830 147 143 132
-1.648235 2.578009 8.917975 76 72 61
-0.703397 0.800016 2.600279 38 34 22
-0.761695 0.927939 3.052081 159 155 143
-0.490498 0.420066 1.247098 166 162 150
-1.904732 3.288029 11.406649 153 149 137
-0.636670 0.739830 2.376580 153 149 137
-0.660695 0.804306 2.602782 154 150 138
-0.466652 0.422462 1.248496 148 144 132
-0.432306 0.359022 1.022899 153 149 137
-0.438037 0.425336 1.250173 144 140 128
-0.433268 0.425816 1.250453 140 136 124
-0.539705 0.816462 2.609873 135 131 119
-0.390346 0.430128 1.252969 136 132 121
-0.403732 0.495673 1.479794 127 123 112
-0.353506 0.366939 1.027518 133 129 118
-0.372770 0.498783 1.481609 127 123 112
-0.461417 0.824327 2.614462 121 117 106
-0.314106 0.370897 1.029827 101 97 86
-0.309728 0.371337 1.030084 82 78 67
-0.451177 0.892246 2.842672 66 62 50
-0.300973 0.372217 1.030597 63 59 47
-1.031960 3.375713 11.457806 64 59 53
-0.961940 3.182078 10.779081 66 61 55
-0.925246 3.118874 10.553622 75 70 64
-0.270328 0.375296 1.032394 82 77 71
-0.839500 2.926819 9.875818 88 83 77
-0.304518 0.572530 1.713219 103 98 92
-0.285042 0.507597 1.486751 117 112 106
-0.306947 0.639176 1.940687 126 121 115
-0.563826 1.951166 6.477828 127 123 114
-0.537306 1.886941 6.251772 155 151 142
-0.635154 2.479120 8.294526 177 173 164
-0.346686 1.036523 3.304017 182 178 169
-0.562085 2.352681 7.843589 198 194 185
-0.535174 2.288494 7.617557 201 197 188
-0.509046 2.224230 7.391479 200 196 187
-0.493711 2.225770 7.392377 207 203 194
-0.468757 2.161387 7.166230 210 206 197
-0.377014 1.702375 5.578338 74 70 59
-0.336498 1.572666 5.125493 141 137 125
-0.277298 1.244164 3.990914 137 133 121
-0.260953 1.178916 3.764262 136 132 120
-0.288531 2.647723 8.770063 129 125 113
-0.253165 2.651276 8.772136 126 122 110
-0.995027 1.248550 4.173831 153 149 138
-0.489573 0.357535 1.018378 154 150 139
-0.862544 1.060047 3.499079 135 131 120
-0.853862 1.060919 3.499588 103 99 88
-0.505192 0.423237 1.244968 66 62 50
-0.851480 1.128430 3.727234 173 169 157
-0.458928 0.360613 1.020174 155 151 139
-0.454550 0.361053 1.020430 150 146 134
-0.647039 0.812613 2.601688 150 146 134
-1.320918 2.292149 7.794821 151 147 135
-0.457501 0.428028 1.247763 149 145 133
-1.101958 1.910519 6.442621 143 139 127
-0.549032 0.687917 2.152421 132 128 116
-0.768331 1.271326 4.187119 136 132 120
-0.388884 0.367650 1.024279 134 130 118
-0.456006 0.629992 1.930368 133 129 118
-0.388670 0.502214 1.479303 140 136 125
-0.360486 0.572317 1.708461 69 65 53
-0.314428 0.442402 1.256149 80 76 64
-0.873501 2.606183 8.731070 98 94 82
-0.288195 0.377766 1.030181 108 104 93
-1.050081 3.462968 11.678294 127 123 112
-0.995486 3.333911 11.226483 151 147 138
-0.926936 3.138984 10.547984 159 155 144
-0.875864 3.009573 10.095966 172 168 156
-0.855833 3.011585 10.097140 187 184 169
-0.709845 2.689896 8.968168 220 217 202
-0.678990 2.625725 8.742471 210 207 192
-0.687662 3.364837 11.244526 203 199 188
-0.284068 0.849079 2.622963 220 216 205
-0.417988 1.911964 6.255206 197 193 181
-0.378005 1.714167 5.575032 93 89 77
-0.459047 2.446008 8.072846 47 43 31
-0.434453 2.381208 7.846781 142 138 126
-0.472195 2.848314 9.437109 168 164 152
-0.268602 1.254260 3.988905 138 134 122
-0.376503 2.454301 8.077684 130 126 114
-0.228731 1.123723 3.536230 134 130 118
-0.275704 2.195343 7.173569 130 126 114
-0.534194 0.424970 1.241999 154 150 139
-0.529425 0.425449 1.242278 147 143 132
-0.871931 1.067564 3.496219 146 142 131
-0.519887 0.426407 1.242837 124 120 109
-0.515118 0.426886 1.243117 67 63 52
-0.472417 0.363524 1.018218 191 187 175
-1.227002 1.911373 6.431627 148 144 132
-0.454906 0.365283 1.019244 147 143 131
-0.981024 1.462518 4.854234 148 144 132
-0.908365 1.334513 4.403689 139 135 123
-0.867694 1.270947 4.178672 139 136 121
-0.617585 0.754854 2.374119 146 142 130
-0.966543 1.531626 5.082484 145 141 129
-0.457888 0.432636 1.246471 144 140 128
-0.626265 0.821635 2.601012 140 136 124
-0.411128 0.369681 1.021811 134 130 118
-0.434043 0.435031 1.247869 136 132 120
-0.405428 0.437906 1.249546 132 128 117
-0.646190 1.090243 3.509450 127 123 112
-0.512392 0.833075 2.607686 99 95 84
-0.372044 0.441260 1.251503 72 68 57
-0.512463 0.900720 2.835084 58 54 43
-0.348199 0.443656 1.252901 62 58 46
-0.329122 0.445572 1.254019 118 114 103
-0.635315 1.564903 5.101899 141 137 125
-1.107209 3.344111 11.214083 166 162 150
-0.419870 0.842370 2.613109 186 182 170
-0.372183 0.711856 2.161101 197 193 181
-1.051929 3.484969 11.672127 216 212 200
-0.346845 0.714402 2.162587 210 207 188
-0.389488 1.048380 3.297095 203 200 183
-0.552857 1.911449 6.243741 213 210 193
-0.254395 0.791342 2.395407 113 110 95
-0.232826 0.725857 2.169270 133 129 117
-0.256831 1.061707 3.304871 145 141 129
-0.484617 3.339007 11.023175 130 126 114
-0.350595 2.540642 8.302211 130 126 114
-0.301834 2.342583 7.622864 128 124 112
-0.934617 1.137759 3.717531 158 154 143
-1.814093 2.750247 9.348418 148 144 133
-0.494661 0.365554 1.015749 142 138 127
-0.837877 1.011411 3.268607 125 121 110
-1.619052 2.565740 8.677958 87 83 72
-0.771519 0.950044 3.045199 217 213 201
-1.157252 1.727696 5.750159 163 159 147
-1.516301 2.508029 8.456683 145 141 129
-0.739920 0.953218 3.047051 144 140 128
-0.732020 0.954012 3.047514 138 134 122
-0.477352 0.435327 1.244061 133 130 115
-0.624857 0.760677 2.371903 137 134 119
-0.437750 0.371272 1.019085 141 137 125
-0.463045 0.436765 1.244900 137 133 121
-0.604679 0.762704 2.373085 133 129 117
-0.424617 0.372592 1.019855 131 127 115
-0.676722 0.959568 3.050755 129 125 113
-0.415861 0.373471 1.020368 131 127 115
-1.547818 3.049133 10.273216 133 129 117
-0.789644 1.288392 4.180624 132 128 116
-0.531058 0.702067 2.150103 126 122 110
-0.405815 0.442514 1.248254 129 125 114
-0.401046 0.442993 1.248534 120 116 105
-0.952728 1.952345 6.444039 89 85 74
-0.367706 0.378309 1.023191 69 65 53
-0.367662 0.446347 1.250491 67 63 51
-0.329509 0.450180 1.252727 220 216 204
-0.409633 0.782300 2.384518 223 219 207
-0.262639 0.388865 1.029349 212 209 192
-0.538643 1.721811 5.559121 213 210 195
-0.294767 0.589738 1.709358 208 205 190
-0.539004 2.334079 7.604777 240 237 222
-0.263873 0.864977 2.620359 85 82 65
-0.581295 3.418371 11.239058 53 50 33
-0.502264 2.950074 9.652608 88 84 72
-0.419568 2.550179 8.293670 135 131 119
-0.386775 2.961677 9.659377 126 122 110
-0.237869 1.479894 4.667561 126 122 110
-0.157327 0.739614 2.172009 120 116 104
-0.971319 1.211328 3.940159 146 142 131
-1.424312 2.055214 6.867120 142 138 127
-0.846841 1.018589 3.265875 135 131 120
-0.490639 0.370224 1.014820 116 112 101
-1.587054 2.449354 8.220741 44 40 29
-0.923993 1.216083 3.942932 30 26 15
-1.082614 1.542222 5.069602 200 196 185
-0.691474 0.828953 2.593401 133 129 117
-1.838223 3.176686 10.705146 128 124 112
-0.455617 0.373743 1.016873 139 135 123
-1.733275 3.050400 10.256910 124 121 106
-1.527586 2.660574 8.905807 124 121 106
-1.448539 2.531685 8.456053 129 126 111
-0.618677 0.767851 2.370475 134 130 118
-0.671359 0.899389 2.821774 128 124 112
-1.704440 3.326957 11.167374 134 130 118
-0.411839 0.378141 1.019439 127 123 111
-0.434817 0.444247 1.245285 116 112 100
-0.834517 1.430317 4.629757 115 111 99
-1.514783 3.140766 10.496911 122 118 106
-0.708511 1.169316 3.728370 125 121 109
-0.518903 0.709460 2.149130 99 95 83
-1.198350 2.488406 8.243525 73 69 58
-1.156441 2.424201 8.018788 53 49 38
-1.066083 2.228034 7.342504 58 54 43
-1.442046 3.421734 11.409947 73 69 57
-0.359306 0.383419 1.022518 86 82 70
-0.354928 0.383858 1.022775 104 100 88
-0.372819 0.450476 1.248919 133 129 117
-0.506174 0.915984 2.831456 194 190 178
-0.324283 0.386937 1.024571 221 217 205
-0.717427 1.784156 5.772587 223 219 207
-0.320358 0.455747 1.251994 212 208 196
-0.315589 0.456226 1.252274 215 211 200
-0.289261 0.390456 1.026624 225 222 207
-0.262994 0.393095 1.028163 236 233 216
-0.263129 0.461496 1.255349 229 226 211
-0.258360 0.461975 1.255628 222 219 204
-0.260916 0.530134 1.482672 214 210 198
-0.529361 2.281956 7.373964 162 159 144
-0.220207 0.465808 1.257865 65 62 45
-0.237560 0.669310 1.938428 76 73 56
-0.403062 2.020984 6.472594 55 52 35
-0.471103 2.698299 8.740539 83 79 67
-0.196362 0.468204 1.259262 120 116 104
-0.261442 1.282646 3.981768 124 120 108
-0.444932 3.385079 11.014006 129 125 113
-0.307077 2.920023 9.431733 124 120 108
-0.156423 0.609047 1.715990 129 125 113
-1.872009 2.849971 9.562076 138 134 125
-0.962622 1.221424 3.938149 140 136 127
-1.164442 1.613927 5.288855 122 118 109
-0.490995 0.374454 1.013634 96 92 81
-0.754561 0.898346 2.814899 101 97 85
-0.806059 1.030764 3.266059 154 150 139
-0.469106 0.376653 1.014917 141 137 126
-0.804587 1.099709 3.493234 137 134 119
-0.451594 0.378412 1.015944 129 126 111
-1.541498 2.745584 9.127271 125 122 105
-0.438461 0.379732 1.016713 126 123 106
-0.671969 0.906643 2.819740 118 115 100
-0.752493 1.104942 3.496288 128 125 110
-1.033341 1.764691 5.750718 126 123 108
-0.706567 1.040760 3.271890 130 126 114
-1.092660 1.965120 6.428509 124 120 108
-0.967775 1.702481 5.527472 123 119 107
-0.430435 0.449334 1.244273 77 73 61
-0.416128 0.450772 1.245112 66 62 50
-0.397051 0.452688 1.246230 109 105 93
-0.551834 0.918713 2.826782 165 162 145
-0.359661 0.387648 1.021332 200 197 180
-0.350905 0.388528 1.021845 214 211 196
-0.346528 0.388968 1.022102 207 203 191
-0.987684 2.388445 7.797197 213 209 197
-0.831038 1.991404 6.443843 226 222 210
-0.484259 0.925502 2.830743 221 217 205
-0.770168 1.928723 6.220322 219 215 203
-0.469242 0.927010 2.831623 227 223 211
-0.330284 0.459396 1.250143 222 218 206
-0.638097 1.598010 5.092617 228 224 212
-0.302750 0.393366 1.024668 228 224 212
-0.306438 0.461792 1.251541 240 236 224
-0.354723 0.732126 2.157068 223 220 205
-0.258972 0.397764 1.027234 173 170 155
-0.281977 0.533046 1.480064 163 160 145
-0.290116 0.601024 1.706676 151 148 133
-0.261335 0.535120 1.481274 134 131 116
-0.511911 2.092262 6.689638 120 117 102
-0.432038 1.687508 5.331785 99 96 81
-0.652560 3.178873 10.314821 78 75 58
-0.394173 1.760108 5.561093 78 76 55
-0.232099 0.675650 1.937166 71 68 51
-0.486141 2.989203 9.643308 90 86 74
-0.214270 0.677441 1.938211 117 113 101
-0.194249 0.541859 1.485206 123 119 107
-0.222869 1.158151 3.527331 122 118 106
-0.341240 2.866168 9.197623 124 120 108
-0.828741 0.967387 3.035538 136 132 121
-0.785204 0.902583 2.811105 130 126 115
-1.341631 1.953524 6.410251 125 121 110
-1.083879 1.495175 4.836463 62 58 47
-0.486972 0.379124 1.012705 45 41 30
-0.857386 1.102864 3.487829 200 196 185
-1.605677 2.618773 8.664624 140 136 124
-0.855164 1.172265 3.714944 134 130 118
-0.678396 0.844136 2.590380 132 128 116
-0.733944 0.976910 3.041094 117 113 101
-0.665070 0.914652 2.818146 122 118 106
-1.005379 1.710595 5.522020 113 109 98
-0.614342 0.850571 2.594135 64 60 48
-0.998685 1.918800 6.203367 81 78 63
-0.589986 0.922196 2.822547 142 139 124
-1.088225 2.601581 8.467970 208 205 190
-0.346883 0.393198 1.020916 220 216 204
-0.450253 0.728701 2.149782 217 213 201
-0.994033 2.472689 8.019521 227 223 211
-1.226728 3.279443 10.729702 236 232 220
-0.390499 0.596349 1.699315 235 231 219
-0.565860 1.270508 3.958887 237 233 221
-0.417997 0.801119 2.378658 231 227 215
-0.510363 1.206906 3.735155 214 210 198
-0.311595 0.465921 1.249970 200 196 184
-0.374240 0.736338 2.154238 182 178 166
-0.302056 0.466879 1.250529 163 159 147
-0.386596 0.873452 2.607484 141 137 125
-0.394768 0.941808 2.833990 134 130 118
-0.387259 0.942563 2.834430 126 122 110
-0.365245 0.875597 2.608735 123 119 107
-0.250572 0.402874 1.026561 121 117 105
-0.272075 0.539069 1.479271 121 117 105
-0.244827 0.472629 1.253883 122 119 102
-0.251433 0.541143 1.480481 106 103 86
-0.240601 0.611408 1.708101 75 73 52
-0.310397 1.157818 3.519890 67 64 45
-0.232582 0.681392 1.935556 86 83 68
-0.534823 3.418133 10.997243 83 79 67
-0.513227 3.420303 10.998509 96 92 80
-0.180527 0.409911 1.030667 116 112 100
-0.179187 0.548401 1.484716 122 118 106
-0.290169 3.304357 10.557613 126 122 110
-1.153926 1.568445 5.056303 136 132 120
-1.106835 1.503617 4.832182 125 121 109
-0.743027 0.844577 2.584698 111 107 96
-0.487328 0.383354 1.011519 103 99 88
-1.540167 2.433907 7.983116 193 189 178
-0.849409 1.112125 3.485986 135 131 120
-0.474194 0.384673 1.012289 142 139 124
-1.293061 2.041379 6.636314 127 124 109
-0.465439 0.385553 1.012802 127 124 109
-1.682653 2.906505 9.562930 122 118 106
-1.441114 2.443858 7.988922 128 124 113
-1.177514 1.983428 6.416206 122 117 111
-0.439172 0.388192 1.014342 107 102 96
-0.434794 0.388631 1.014598 85 80 74
-0.606864 0.788698 2.365798 66 61 55
-0.607803 0.858163 2.592624 83 80 65
-1.094809 2.061296 6.647935 93 90 73
-1.039818 1.997262 6.424277 157 154 139
-0.920939 1.730970 5.523721 195 192 175
-0.845542 1.599427 5.074379 225 222 205
-1.288963 3.154734 10.266649 216 213 198
-0.441072 0.666236 1.921754 229 225 213
-0.369211 0.464779 1.245323 233 229 217
-0.396501 0.601155 1.697486 238 234 222
-0.411357 0.669222 1.923496 233 229 217
-0.485478 0.940011 2.826675 229 225 213
-0.335827 0.468133 1.247280 198 194 182
-0.444111 0.874608 2.602219 176 172 160
-0.307838 0.401386 1.022040 153 149 137
-0.294705 0.402705 1.022810 127 123 111
-0.425411 0.946046 2.830196 123 119 107
-0.302444 0.471487 1.249237 124 120 108
-0.272816 0.404905 1.024093 118 114 102
-0.328154 0.677581 1.928373 119 115 103
-0.358706 0.883188 2.607225 119 115 103
-0.681705 2.520153 8.033434 118 115 100
-0.681748 3.007061 9.621598 117 114 97
-0.525617 2.188039 6.908179 86 83 64
-0.719622 3.629287 11.661307 78 75 56
-0.651312 3.636149 11.665311 59 56 39
-0.492658 2.608704 8.271396 72 69 54
-0.337076 1.511392 4.650421 86 82 70
-0.481382 2.957632 9.406462 86 83 68
-0.200248 0.551313 1.482108 95 92 77
-0.223497 0.827213 2.388269 101 98 83
-0.176505 0.414581 1.029738 112 109 94
-0.205929 1.663685 5.111870 121 117 105
-1.607543 2.443224 7.974773 131 127 115
-0.743605 0.851454 2.582770 75 71 60
-0.736488 0.852169 2.583187 76 72 61
-0.763898 0.919355 2.808357 172 168 157
-0.782626 0.987414 3.034036 141 137 126
-1.775313 2.985891 9.779154 135 132 117
-0.733865 0.922373 2.810118 119 116 101
-0.465794 0.389782 1.011616 121 117 105
-1.394605 2.324736 7.533701 126 122 111
-1.283516 2.126076 6.859882 124 120 111
-1.237568 2.060752 6.635798 99 95 86
-0.944362 1.460747 4.611994 72 67 61
-1.117405 1.863003 5.962511 65 60 54
-0.651084 0.860749 2.588193 64 59 55
-1.419572 2.601989 8.439345 70 65 59
-0.666289 0.929162 2.814078 75 70 64
-0.708586 1.064793 3.265153 127 123 111
-0.700295 1.065626 3.265639 157 154 139
-1.040992 1.940621 6.193767 206 203 184
-0.973431 1.807528 5.744174 211 208 191
-1.448111 3.088703 10.025109 223 220 203
-1.505833 3.292725 10.702056 232 229 212
-1.318500 2.961844 9.579153 218 215 198
-0.617385 1.073955 3.270499 226 223 206
-1.351887 3.168311 10.257526 233 230 215
-0.347594 0.401658 1.018544 232 228 216
-0.494508 0.876479 2.597371 215 211 199
-0.466040 0.879340 2.599039 134 130 118
-0.458923 0.880055 2.599456 129 125 113
-0.331446 0.473220 1.246268 123 119 107
-0.419089 0.814116 2.375014 125 121 109
-0.299438 0.406496 1.021367 117 113 101
-0.679932 2.606357 8.255922 118 114 102
-0.519988 1.853083 5.770752 121 117 105
-0.604789 2.474026 7.806773 119 116 101
-0.257432 0.550596 1.477383 101 98 79
-0.448843 2.070051 6.455253 64 61 44
-0.397146 1.795484 5.551176 55 52 37
-0.248581 0.761306 2.158232 84 80 68
-0.352225 1.730057 5.327032 81 77 65
-0.494158 3.254483 10.307802 91 87 75
-0.231177 0.902935 2.612806 98 94 82
-0.190346 0.557336 1.481315 108 104 92
-0.331268 2.151804 6.688921 118 114 102
-0.197905 0.766397 2.161202 118 114 102
-0.366447 3.197373 10.088511 122 118 106
-0.311609 3.692464 11.679163 117 113 101
-0.902913 1.123670 3.478229 116 112 100
-0.929963 1.191274 3.703316 101 97 85
-0.991572 1.325727 4.153050 52 48 37
-0.825334 1.061142 3.256103 131 127 116
-1.087251 1.597401 5.054132 130 126 115
-0.842137 1.129776 3.481791 119 115 104
-0.470527 0.393573 1.010174 116 112 101
-0.687247 0.864050 2.584179 72 68 57
-0.743768 0.999015 3.034212 69 65 54
-0.767297 1.066973 3.259505 63 59 48
-1.565960 2.815095 9.106180 69 65 54
-1.179750 2.010037 6.408746 84 80 71
-0.674407 0.935662 2.811604 142 138 127
-0.902670 1.475302 4.611606 164 160 148
-0.852703 1.410000 4.387862 217 214 197
-1.083363 2.019721 6.414396 225 222 205
-0.614340 0.941697 2.815125 222 219 202
-0.580491 0.874776 2.590437 231 228 211
-1.066414 2.162067 6.868735 234 231 214
-1.358559 2.976574 9.571682 219 216 199
-0.642442 1.149838 3.493496 237 234 217
-0.633760 1.150710 3.494005 237 233 221
-0.601476 1.083632 3.269225 226 222 211
-0.361083 0.404568 1.016589 212 208 196
-0.554175 1.018063 3.045325 162 158 146
-0.502203 0.882641 2.595026 137 133 121
-0.430151 0.678915 1.919231 128 124 112
-1.061815 2.725101 8.682385 125 121 109
-0.459990 0.816560 2.370827 124 120 108
-0.380748 0.613557 1.695454 119 115 103
-0.433087 0.819263 2.372404 117 113 101
-0.899001 2.530493 8.011911 114 110 98
-0.859940 3.659562 11.640963 121 117 105
-0.242883 0.416443 1.023517 118 114 102
-0.238505 0.416883 1.023774 107 104 89
-0.257851 0.555582 1.475985 84 81 62
-0.619744 2.769514 8.708297 82 80 59
-0.216616 0.419082 1.025057 79 76 57
-0.226888 0.558693 1.477800 75 72 57
-0.341371 1.742658 5.324524 87 83 72
-0.195925 0.561804 1.479615 99 95 84
-0.231412 0.980168 2.837571 102 98 87
-0.230287 1.050602 3.064309 110 106 95
-0.432103 3.491581 10.986022 115 111 100
-0.399306 3.354233 10.534600 116 112 101
-0.164914 0.494598 1.254760 115 111 99
-0.203506 1.123614 3.292552 121 117 105
-1.606694 2.404778 7.739468 133 129 118
-0.867462 1.064988 3.251427 108 104 93
-0.834298 1.068320 3.253371 60 56 45
-0.723410 0.867352 2.580166 83 79 67
-0.716293 0.868067 2.580583 90 86 74
-1.544587 2.552423 8.196245 69 65 54
-1.171462 1.882881 5.952431 77 73 61
-1.699944 3.031735 9.773118 92 88 76
-0.799430 1.142526 3.481984 123 119 107
-1.598528 2.900518 9.325926 159 155 143
-1.548994 2.834791 9.102261 195 191 179
-0.743097 1.077483 3.258717 208 205 190
