ply
format ascii 1.0
element vertex 1238
property float x
property float y
property float z
property uchar red
property uchar green
property uchar blue
end_header
-0.520144 0.713049 1.407880 157 148 47
-0.523857 0.713859 1.408240 157 148 47
-0.527570 0.714669 1.408599 157 148 47
-0.531283 0.715479 1.408959 157 148 47
-0.534996 0.716289 1.409319 156 147 46
-0.476131 1.918104 5.969280 154 144 47
-0.637143 2.901005 9.535938 155 145 48
-0.431593 1.502199 4.443083 155 145 48
-0.329472 0.802939 1.896719 155 145 48
-0.338536 0.804916 1.897597 154 144 47
-1.461403 3.080839 9.615783 156 147 46
-0.573680 0.923917 2.174022 155 146 45
-0.547021 0.850403 1.917792 154 145 44
-1.799962 3.763986 11.931404 155 146 45
-1.463849 2.945976 9.108726 156 147 46
-0.731347 1.229108 3.203884 156 147 46
-0.906173 1.605741 4.489055 156 147 46
-0.846684 1.457366 3.975998 156 147 46
-0.509810 0.706888 1.406893 156 147 46
-0.513523 0.707698 1.407253 156 147 46
-0.517236 0.708508 1.407613 156 147 46
-0.520949 0.709318 1.407972 156 147 46
-0.524662 0.710129 1.408332 156 147 46
-0.528375 0.710939 1.408692 156 147 46
-0.938276 1.545047 4.238517 156 147 46
-2.066572 3.822154 11.957230 157 148 47
-2.313553 4.282227 13.503038 157 148 47
-0.581382 0.790201 1.667474 157 148 47
-0.312662 1.467174 4.431596 153 145 47
-0.397756 2.360211 7.737273 154 146 48
-0.550126 3.873330 13.332306 154 146 48
-0.285132 0.788497 1.892441 154 144 46
-0.272984 0.651313 1.383967 154 144 46
-0.276697 0.652123 1.384326 154 144 46
-0.284123 0.653743 1.385046 154 144 47
-0.287836 0.654553 1.385405 154 144 47
-0.291549 0.655363 1.385765 154 144 47
-0.489621 1.909385 5.970630 154 144 47
-0.321390 0.796408 1.895953 153 143 46
-0.325922 0.797397 1.896392 153 143 46
-0.330454 0.798385 1.896831 153 143 46
-0.409605 1.219256 3.426391 153 143 46
-0.365211 0.940502 2.407496 152 142 45
-0.991317 1.951575 5.765580 156 147 46
-1.001994 1.953905 5.766614 156 147 46
-1.772309 3.669111 11.675156 155 146 45
-1.922443 3.970935 12.704295 156 147 46
-0.528681 0.774367 1.662385 156 147 46
-0.532804 0.775266 1.662784 156 147 46
-0.801052 1.304661 3.464310 156 147 46
-0.879615 1.456335 3.979218 156 147 46
-0.742641 1.157383 2.951355 156 147 46
-0.748812 1.158729 2.951952 156 147 46
-0.754983 1.160075 2.952550 156 147 46
-2.033593 3.726117 11.700466 155 146 45
-1.032165 1.691419 4.754942 155 146 45
-0.582275 0.786060 1.667576 155 146 45
-0.275395 0.915277 2.398816 153 145 47
-0.555105 3.850256 13.332878 153 145 47
-0.624003 3.865288 13.339552 153 143 46
-0.270076 0.646772 1.383699 152 142 44
-0.273789 0.647582 1.384059 152 142 44
-0.290463 0.718056 1.639325 152 142 44
-0.429792 1.684160 5.203927 153 143 45
-0.298708 0.719855 1.640123 153 143 45
-0.292354 0.651633 1.385858 153 143 45
-0.296067 0.652443 1.386217 152 142 44
-0.299780 0.653253 1.386577 152 142 45
-0.303493 0.654063 1.386937 152 142 45
-0.307206 0.654873 1.387296 153 143 46
-0.310919 0.655683 1.387656 152 142 45
-1.085280 2.161353 6.535675 155 146 45
-0.539921 0.839318 1.917140 155 146 45
-0.525452 0.769325 1.662088 155 146 45
-0.529575 0.770225 1.662487 155 146 45
-0.533698 0.771124 1.662887 156 147 46
-0.802568 1.297638 3.464484 155 146 45
-0.809558 1.299163 3.465161 155 146 45
-0.852832 1.375441 3.723004 155 146 45
-0.750150 1.152529 2.952106 155 146 45
-0.719217 1.078944 2.695459 155 146 45
-0.800005 1.230243 3.210586 155 146 45
-0.323495 1.650599 5.193668 151 146 46
-0.273500 0.776424 1.891350 153 144 49
-0.358206 1.525362 4.689727 154 144 49
-0.390339 1.731588 5.453795 152 142 45
-0.309758 0.784334 1.894862 152 142 44
-0.504473 2.022110 6.479459 152 142 45
-0.742207 1.210710 3.205012 156 147 46
-1.098783 1.886153 5.522421 155 146 45
-0.272341 0.969326 2.652216 151 145 47
-0.249408 0.634451 1.381726 151 146 46
-0.263392 0.703476 1.636734 154 145 50
-0.314695 1.044541 2.909972 152 142 45
-0.292612 0.775826 1.893219 152 143 42
-0.282825 0.641742 1.384963 152 143 40
-0.306208 0.778792 1.894536 151 142 41
-0.310741 0.779781 1.894975 151 141 44
-0.315273 0.780770 1.895414 151 141 44
-0.333402 0.784725 1.897170 152 142 45
-0.376042 0.991951 2.662261 152 142 45
-0.394916 1.062043 2.917743 152 142 45
-0.805598 1.283592 3.464832 156 147 46
-1.317324 2.318878 7.065553 155 146 45
-0.256041 0.697536 1.636038 152 147 47
-0.465991 2.906271 10.026997 152 146 48
-0.490279 2.977113 10.283004 154 145 50
-0.536555 3.249383 11.302108 153 144 51
-0.526380 2.984990 10.286502 154 144 49
-0.583809 3.325236 11.560341 153 143 46
-0.620479 3.464323 12.071203 153 143 45
-0.650092 3.536327 12.327727 152 143 42
-0.389713 1.119960 3.170918 151 141 44
-0.390083 1.054497 2.917299 151 141 44
-0.897898 3.655936 12.605387 151 141 44
-0.922528 1.498380 4.237152 155 146 45
-0.750449 3.600899 12.591188 153 143 46
-0.706134 1.116960 2.947938 155 146 45
-0.924310 1.490123 4.237356 155 146 45
-0.335303 1.288288 3.926674 154 145 52
-0.281962 0.759199 1.892240 156 146 51
-0.460680 1.768412 5.714427 152 143 42
-0.292666 0.632171 1.385960 152 142 45
-1.604681 2.988227 9.630121 156 147 46
-0.817135 1.264049 3.466031 155 146 45
-0.282945 0.754645 1.892353 157 147 52
-0.300897 0.630061 1.386772 152 142 45
-0.399242 1.165521 3.425578 152 142 45
-0.393993 1.100126 3.171410 152 142 45
-0.387925 1.034551 2.917162 152 142 45
-2.179587 3.995469 13.237116 156 147 46
-0.265798 0.746137 1.890709 152 146 48
-0.257146 0.616610 1.382548 153 147 51
-0.279395 0.749103 1.892026 156 147 54
-0.288460 0.751081 1.892905 156 146 49
-0.523782 2.397912 8.257238 155 146 45
-0.292597 0.688164 1.639644 154 145 42
-0.304964 0.690862 1.640842 152 142 45
-1.493036 2.737019 8.858452 155 146 45
-0.750766 1.171043 3.205995 156 147 46
-2.184477 3.972807 13.237677 156 147 46
-0.747172 1.106439 2.951986 155 146 45
-0.250525 0.611259 1.381921 152 146 50
-0.404756 2.166236 7.484777 152 146 48
-0.398256 1.974652 6.723158 153 147 51
-0.460390 2.305151 7.997492 156 147 54
-0.387742 1.592026 5.200160 158 148 53
-0.499567 2.186921 7.493961 155 146 45
-1.097564 1.873669 5.776246 156 147 46
-2.189367 3.950145 13.238239 156 147 46
-0.967657 1.645222 5.002710 155 146 45
-0.909492 1.506616 4.489746 155 146 45
-0.788245 1.228332 3.463342 155 146 45
-1.759246 3.140039 10.406349 156 147 46
-1.813152 3.214758 10.665236 156 147 46
-1.577760 2.722697 8.866780 156 147 46
-1.399578 2.306076 7.327532 155 146 45
-1.617411 2.668391 8.616957 156 147 46
-1.263929 2.325190 7.568109 156 147 46
-1.114735 1.917479 6.031659 156 147 46
-0.846675 1.296254 3.722695 157 148 47
-0.898237 1.370030 3.981356 157 148 47
-0.831701 1.230460 3.467578 157 148 47
-2.273529 3.858522 12.992901 156 147 46
-1.170151 1.804516 5.529694 155 146 45
-0.483144 0.650293 1.404498 156 147 46
-0.871029 1.417975 4.232419 156 147 46
-0.743311 1.141726 3.205376 156 147 46
-1.765775 3.165582 10.660790 157 148 47
-0.798266 1.215812 3.464367 157 148 47
-0.523987 0.659204 1.408454 157 148 47
-1.402310 2.341133 7.581567 157 148 47
-0.826227 1.221912 3.467075 157 148 47
-0.758694 1.082987 2.953198 157 148 47
0.823569 0.978119 7.623091 219 213 197
1.051144 1.342660 10.646286 210 207 190
0.233020 0.554707 3.619978 211 205 189
0.345775 0.624577 4.370399 213 210 193
0.977671 1.372924 10.907248 214 208 192
0.246216 0.544044 3.618729 213 207 191
0.238816 0.545658 3.619446 211 205 189
0.200688 0.519892 3.369367 211 205 189
0.164198 0.493768 3.119131 211 205 189
0.221996 0.474235 3.113557 204 201 184
0.391426 0.706503 5.127330 210 204 188
0.207613 0.544682 3.622497 209 203 187
0.547011 0.662188 5.112297 216 210 194
0.528949 0.765798 5.875371 212 209 192
0.914288 1.180074 9.644664 206 203 186
0.406867 0.682394 5.125911 214 208 192
0.298205 0.574932 4.121332 212 206 190
0.192820 0.466756 3.116435 208 202 186
0.186240 0.468191 3.117072 210 204 188
1.233821 1.041745 9.360068 230 224 208
1.173028 1.249176 10.888624 212 206 190
0.104467 0.349665 2.109907 211 205 189
0.124138 0.377734 2.361780 211 205 189
0.599132 0.953689 7.645104 207 201 185
0.837888 1.257573 10.413533 209 203 187
0.232764 0.548203 3.873925 208 202 186
0.025565 0.302157 1.609995 207 201 185
1.035951 0.875637 7.856624 226 220 204
0.347899 0.419076 3.101464 223 217 201
0.242611 0.442048 3.111663 212 209 192
0.082995 0.317220 1.858227 206 203 186
0.078463 0.318209 1.858666 207 201 185
0.503446 0.800234 6.385530 208 202 186
0.037040 0.295316 1.608899 206 200 184
1.524032 1.195031 11.362335 226 220 204
0.428985 0.457462 3.601197 218 212 196
0.783098 0.821195 7.119830 208 202 186
0.739793 0.799144 6.870244 215 209 193
0.284044 0.520584 3.869018 206 203 186
0.875476 1.273532 10.917598 207 201 185
0.453242 0.798663 6.390439 207 201 185
1.034708 1.522286 13.186203 206 200 184
0.483672 0.717363 5.879972 205 202 185
0.015848 0.260197 1.357202 208 202 186
0.728758 1.067781 9.155406 205 199 183
0.507981 0.836333 6.892748 205 199 183
0.138495 0.419850 2.868017 205 199 183
0.438755 0.789299 6.391889 205 199 183
0.164427 0.315788 2.104176 214 208 192
0.441383 0.653651 5.376543 206 203 186
0.963515 1.213761 10.909219 207 201 185
0.748229 1.076906 9.407368 204 198 182
0.492497 0.826324 6.894298 205 199 183
0.632366 1.010271 8.657239 204 198 182
0.315341 0.338077 2.597148 221 215 199
0.577323 0.552778 4.855843 210 204 188
0.203699 0.392641 2.861749 204 201 184
0.210583 0.421345 3.114868 206 203 186
0.228990 0.447536 3.366871 203 200 183
0.959335 1.194391 10.909699 206 200 184
0.868736 0.717465 6.857951 219 213 197
0.550812 0.518847 4.604661 216 210 194
0.407769 0.430953 3.603367 215 209 193
0.601208 0.597179 5.361141 207 201 185
0.433676 0.484852 4.108433 211 205 189
0.106778 0.258417 1.602224 207 201 185
0.433555 0.574206 4.869807 204 201 184
0.666629 0.791336 7.131316 203 200 183
0.865793 0.986089 9.142323 203 200 183
0.953891 1.085970 10.148939 201 198 181
1.012994 1.162403 10.904576 207 204 187
0.199514 0.446614 3.369753 203 197 181
1.276758 0.967195 9.863945 215 209 193
0.547494 0.568753 5.112595 212 206 190
0.105884 0.254275 1.602327 206 200 184
1.307583 1.224573 12.145060 212 206 190
0.815534 0.862410 8.132099 209 203 187
1.215922 1.215226 11.900150 210 207 190
0.322436 0.471131 3.865451 151 148 131
0.835786 0.946026 8.891505 184 181 164
0.976017 1.091499 10.400655 197 194 177
0.966339 1.299024 12.178116 205 199 183
0.105440 0.371751 2.617526 206 200 184
0.461313 0.432616 3.852029 214 208 192
0.871425 0.834675 8.126743 206 200 184
0.915106 0.882972 8.630093 201 195 179
0.957149 0.931627 9.133602 178 172 156
0.997553 0.980640 9.637269 156 150 134
0.466495 0.576055 5.120480 106 103 86
0.271365 0.445145 3.616638 194 191 174
0.824333 1.105173 10.415421 205 199 183
0.872663 1.181371 11.172111 203 197 181
0.404406 0.705256 6.141657 204 198 182
1.182573 1.036077 10.634582 203 197 181
1.252347 1.106303 11.389200 197 191 175
0.539869 0.663608 6.128580 98 92 76
0.528372 0.666116 6.129693 195 189 173
0.328013 0.538932 4.626348 204 198 182
0.976754 1.223397 11.923481 202 196 180
1.046172 1.322183 12.931926 204 198 182
0.501019 0.351419 3.340656 214 208 192
1.219582 0.727633 8.093132 217 211 195
0.684711 0.535757 5.353212 218 212 196
0.674444 0.537997 5.354207 211 205 189
0.155733 0.258440 1.851340 213 207 191
0.907380 0.767696 7.869581 208 202 186
0.955212 0.813364 8.372535 203 197 181
1.154846 0.966172 10.129754 214 208 192
0.591782 0.584084 5.616008 201 195 179
0.461630 0.500272 4.613440 180 174 158
0.921393 0.876846 8.883399 205 199 183
0.961851 0.924123 9.387068 214 208 192
0.495689 0.605049 5.625316 187 181 165
0.511194 0.629718 5.877608 195 189 173
0.500108 0.632137 5.878682 201 195 179
1.313388 0.912594 10.114467 212 206 190
0.804042 0.664647 6.864465 216 210 194
0.886801 0.729454 7.617835 210 204 188
0.621498 0.566369 5.613171 181 175 159
0.982929 0.818966 8.623705 161 155 139
0.232952 0.319688 2.605264 170 164 148
0.438519 0.468186 4.361919 200 194 178
0.775168 0.753810 7.628649 205 199 183
0.733073 0.735373 7.378931 196 190 174
0.525406 0.587334 5.622479 114 108 92
0.557877 0.635492 6.126925 190 184 168
0.360860 0.485129 4.369441 208 202 186
0.661600 0.573578 5.863125 61 55 39
0.650513 0.575997 5.864199 79 73 57
0.670347 0.598860 6.116075 106 100 84
0.719872 0.642435 6.618871 103 97 81
1.219272 0.995709 10.885045 81 75 59
0.572907 0.592929 5.871717 67 61 45
0.505715 0.553208 5.370631 63 57 41
0.512414 0.578937 5.623779 201 195 179
0.394442 0.495915 4.620019 204 198 182
1.398895 0.748924 9.091129 219 213 197
0.455738 0.365997 3.598922 214 208 192
0.297901 0.320156 2.852816 212 206 190
0.389140 0.380527 3.605373 155 149 133
1.500302 1.128187 12.888286 207 201 185
0.808467 0.690427 7.371733 210 204 188
0.485354 0.493331 4.865046 157 151 135
0.534291 0.536173 5.367903 106 100 84
0.542130 0.561221 5.620942 176 170 154
0.475526 0.522235 5.119797 64 58 42
0.438114 0.503638 4.869622 177 171 155
0.594922 0.683499 6.884822 199 193 177
0.920902 1.013766 10.660224 201 195 179
0.281479 0.457534 4.123400 203 197 181
0.370015 0.572014 5.383816 202 196 180
0.359747 0.574254 5.384811 199 193 177
-0.003340 0.225324 1.359205 201 195 179
1.772443 0.860786 11.085410 214 208 192
1.149124 0.812481 9.369189 215 209 193
0.751479 0.609628 6.615906 216 210 194
1.112990 0.846693 9.626489 213 207 191
1.034274 0.811211 9.126514 142 136 120
1.048194 0.834502 9.378965 110 104 88
0.642370 0.580776 6.118874 152 146 130
0.689901 0.623062 6.621870 204 198 182
0.561170 0.545836 5.619140 192 186 170
0.539816 0.550495 5.621208 207 201 185
0.449927 0.543778 5.376115 200 194 178
0.844247 0.931655 9.906322 198 192 176
0.443591 0.676801 6.645730 197 192 173
1.931754 0.908904 12.085262 211 205 189
0.810387 0.583820 6.610247 214 208 192
0.547394 0.459918 4.859110 33 27 11
0.378532 0.367273 3.606459 206 200 184
0.528498 0.464040 4.860941 211 205 189
0.581176 0.504342 5.363441 190 184 168
0.540255 0.487372 5.113603 66 60 44
0.510682 0.493824 5.116468 70 64 48
0.529840 0.515542 5.368414 169 163 147
0.548178 0.537438 5.620440 203 197 181
0.565697 0.559513 5.872544 216 210 194
0.274935 0.389875 3.616494 204 198 182
0.691294 0.894673 9.413603 196 191 172
0.440921 0.664428 6.646037 196 191 172
0.137093 0.368154 3.122243 199 194 175
0.393782 0.254296 2.589796 218 212 196
1.084092 0.587547 7.345192 213 207 191
1.185593 0.641801 8.096770 208 202 186
1.588144 0.834104 10.849613 212 206 190
1.418748 0.769197 9.850808 209 203 187
0.740852 0.535102 6.109424 201 195 179
0.696333 0.519349 5.859933 203 197 181
0.376928 0.359838 3.606643 208 202 186
0.578951 0.494026 5.363697 176 170 154
0.637386 0.557676 6.119447 187 181 165
0.517347 0.507467 5.369664 86 80 64
0.591401 0.567709 6.123901 110 104 88
0.221213 0.342879 3.114120 202 196 180
0.175150 0.352929 3.118582 199 193 177
0.578640 0.723291 7.647958 199 194 175
0.631802 0.788091 8.404218 198 193 173
1.810292 0.740320 10.574363 214 208 192
2.093649 0.853746 12.323550 218 212 196
1.480872 0.712050 9.591054 215 209 193
0.555408 0.338149 3.843187 218 212 196
1.172858 0.604003 7.844256 202 196 180
1.235832 0.640334 8.345766 207 201 185
1.258909 0.660335 8.597335 176 170 154
1.356865 0.714070 9.349261 170 164 148
0.965642 0.549071 6.849109 190 184 168
0.212307 0.212722 1.845983 202 196 180
0.866950 0.520532 6.351059 213 207 191
0.927467 0.557400 6.852807 208 202 186
0.422648 0.367115 3.856048 200 194 178
0.407029 0.370522 3.857561 157 151 135
0.430515 0.390433 4.109091 213 207 191
0.669382 0.538602 6.116392 212 206 190
0.596934 0.504337 5.615800 98 92 76
0.556190 0.488191 5.365942 90 84 68
0.884684 0.741982 8.633586 167 161 145
0.392780 0.423702 4.366551 167 161 145
1.019151 0.862857 10.143390 187 181 165
1.109896 0.943200 11.149820 195 189 173
1.063418 0.928305 10.900517 201 195 179
0.125937 0.331708 2.869570 199 194 175
1.632218 0.660903 9.576460 206 200 184
0.770428 0.406044 5.091422 210 204 188
1.755801 0.806171 11.341135 198 192 176
1.853901 0.858582 12.093052 119 113 97
1.208734 0.605670 8.094643 67 61 45
1.271121 0.641268 8.596213 97 91 75
1.370040 0.693499 9.348051 117 111 95
1.390980 0.713535 9.599829 135 129 113
0.987100 0.555607 7.100886 86 80 64
1.083562 0.608375 7.852962 154 148 132
0.924708 0.544615 6.853123 206 200 184
0.697707 0.446515 5.352273 207 201 185
0.231693 0.252934 2.351736 203 197 181
0.550697 0.429380 4.858900 204 198 182
0.381119 0.343355 3.606294 188 182 166
0.626650 0.486622 5.612963 71 65 49
0.584766 0.471156 5.363213 193 187 171
0.351520 0.349813 3.609161 206 200 184
0.613920 0.514004 5.868003 110 104 88
0.125212 0.226957 1.854438 182 176 160
0.437321 0.454116 4.869883 199 193 177
0.483381 0.591693 6.388261 200 195 176
0.471475 0.594291 6.389414 196 191 172
0.796810 0.293224 4.073672 202 198 186
1.305165 0.593264 8.339168 202 196 180
0.808421 0.411559 5.341588 145 139 123
1.322235 0.637886 8.845130 193 187 171
1.036792 0.530948 7.096124 212 206 190
1.061739 0.549679 7.347515 208 202 186
0.237311 0.221905 2.097404 83 77 61
0.624233 0.403397 4.851814 170 164 148
0.544356 0.372477 4.351935 208 202 186
1.301430 0.739120 9.862379 212 206 190
1.572016 0.897646 12.120441 198 192 176
0.475327 0.387538 4.358622 208 202 186
0.592808 0.458600 5.362474 163 157 141
0.449440 0.393185 4.361129 173 167 151
0.168125 0.237000 2.104106 199 193 177
0.671294 0.538171 6.370104 210 204 188
0.312917 0.350451 3.612930 203 197 181
0.389039 0.406364 4.366980 204 198 182
0.490135 0.481001 5.372420 202 196 180
0.434131 0.541567 5.885462 196 191 172
0.519961 0.667882 7.399997 199 194 175
0.527702 0.690367 7.653055 197 192 173
0.262073 0.140076 1.333596 205 201 189
0.646639 0.246114 3.326822 197 193 181
1.473557 0.469324 7.561485 201 197 185
0.243508 0.144127 1.335394 203 199 187
1.801636 0.635171 10.067803 212 206 190
0.581567 0.307796 3.840745 213 210 193
1.625480 0.697347 10.338676 135 132 115
1.217102 0.572762 8.093947 216 210 194
0.640880 0.366083 4.596428 217 211 195
0.707008 0.399141 5.097642 214 208 192
0.213892 0.198073 1.845882 208 202 186
0.241182 0.215862 2.097049 207 201 185
0.811357 0.471345 6.102773 158 152 136
0.906466 0.521822 6.854989 50 44 28
0.577611 0.379887 4.602557 161 155 139
0.742152 0.462701 5.855667 194 188 172
0.902597 0.546409 7.109174 197 191 175
0.346063 0.311692 3.355938 207 201 185
0.527705 0.414518 4.861201 209 203 187
0.580315 0.450525 5.363725 134 128 112
0.348312 0.334944 3.609530 147 141 125
0.430312 0.388282 4.363016 212 206 190
0.404426 0.393929 4.365523 99 93 77
0.241829 0.310691 3.112225 192 186 170
0.477642 0.472926 5.373670 202 196 180
0.387806 0.421298 4.620943 198 192 176
0.587674 0.567633 6.632061 198 192 176
0.430596 0.578161 6.393467 196 191 172
0.015936 0.217520 1.611248 194 189 170
1.526348 0.443127 7.556426 204 200 188
1.747908 0.534658 9.057832 201 197 185
1.875932 0.576662 9.806865 201 197 185
1.237727 0.412851 6.569139 201 197 185
0.972045 0.377570 5.579629 206 200 184
1.050285 0.407123 6.079673 209 203 187
1.170936 0.450735 6.829420 207 201 185
1.900078 0.687952 11.073582 204 198 182
0.464139 0.255266 3.090716 205 202 185
0.906048 0.415280 5.839834 163 162 144
0.450978 0.258137 3.091991 46 45 27
0.358732 0.231640 2.593304 207 201 185
0.431237 0.262444 3.093903 220 213 197
1.470191 0.665185 9.846168 208 202 186
1.107725 0.534461 7.596977 159 153 137
1.131675 0.552547 7.848469 100 94 78
0.929839 0.480025 6.598963 103 97 81
0.732098 0.406609 5.349061 129 123 107
0.795182 0.439469 5.850573 193 187 171
0.892892 0.488086 6.602542 208 202 186
0.739749 0.451563 5.855943 161 155 139
0.489140 0.343058 4.103540 209 203 187
0.345690 0.281109 3.102190 206 200 184
0.400257 0.339138 3.858338 206 200 184
0.392447 0.340842 3.859095 201 195 179
0.415169 0.359197 4.110705 165 159 143
0.101617 0.194489 1.602965 111 105 89
0.419813 0.381495 4.364067 194 188 172
0.411184 0.383378 4.364902 199 193 177
0.393927 0.387143 4.366574 151 145 129
0.206978 0.288061 2.861815 183 177 161
0.200807 0.289407 2.862413 193 187 171
0.350783 0.396556 4.370753 197 191 175
0.449533 0.584816 6.645490 196 191 172
1.235057 0.400478 6.569445 199 195 183
1.036683 0.375116 5.827223 209 203 189
0.462713 0.248655 3.090880 199 196 179
0.436391 0.254397 3.093429 202 196 180
0.625032 0.327644 4.344221 218 211 195
0.925481 0.445139 6.345621 76 70 54
0.636961 0.347922 4.596878 154 148 132
0.627923 0.349894 4.597754 190 184 168
0.792778 0.428330 5.850849 51 45 29
0.854045 0.460725 6.352540 116 110 94
0.949441 0.508554 7.104738 190 184 168
0.582731 0.359754 4.602131 206 200 184
0.678536 0.407494 5.354290 151 145 129
0.564654 0.363698 4.603883 58 52 36
0.658002 0.411974 5.356279 183 177 161
0.479139 0.336594 4.104540 196 190 174
0.504230 0.354000 4.355923 203 197 181
0.857497 0.528614 7.113645 206 200 184
1.169263 0.689401 9.621574 201 195 179
0.390755 0.332996 3.859289 201 195 179
0.474270 0.383417 4.612638 207 201 185
0.405168 0.352732 4.111706 188 182 166
0.426571 0.370943 4.363445 106 100 84
0.447155 0.389333 4.615265 62 56 40
0.466920 0.407902 4.867163 138 132 116
0.457472 0.409963 4.868078 200 194 178
0.193299 0.284554 2.863164 198 192 176
0.212654 0.303211 3.115103 201 195 179
0.206073 0.304647 3.115740 200 194 178
0.242375 0.365369 3.873662 198 193 174
0.053298 0.223575 1.861474 195 190 171
0.226757 0.368777 3.875175 195 190 171
0.502857 0.605988 7.147998 197 192 173
0.018271 0.208337 1.611054 194 189 170
0.502290 0.255547 3.340886 213 212 194
0.488309 0.258597 3.342240 188 191 172
0.356234 0.220064 2.593591 204 201 184
0.662117 0.332926 4.594477 131 125 109
0.614532 0.320858 4.345272 53 47 31
0.644040 0.336870 4.596228 192 186 170
0.635002 0.338842 4.597103 219 213 197
0.924499 0.455279 6.599577 206 200 184
0.875276 0.443568 6.350530 106 100 84
0.826873 0.431679 6.101404 45 39 23
0.815376 0.434187 6.102518 96 90 74
0.518453 0.319370 4.100764 191 185 169
0.580771 0.350673 4.602356 215 209 193
0.676310 0.397178 5.354545 201 195 179
0.734942 0.429286 5.856495 128 122 106
0.655776 0.401659 5.356535 80 74 58
0.611878 0.388786 5.106972 72 66 50
0.469139 0.330129 4.105541 149 143 127
0.493730 0.347214 4.356973 193 187 171
0.485102 0.349096 4.357809 198 192 176
1.020330 0.613969 8.620810 201 195 179
0.433329 0.360392 4.362824 195 189 173
0.454234 0.378281 4.614614 199 193 177
0.474320 0.396348 4.866483 155 149 133
0.407443 0.366040 4.365332 85 79 63
0.370510 0.351648 4.115095 70 64 48
0.390186 0.369805 4.367004 161 155 139
0.381557 0.371687 4.367840 196 190 174
0.211227 0.296600 3.115266 172 166 150
0.204647 0.298036 3.115904 196 190 174
0.271920 0.350708 3.870831 196 190 174
0.837215 0.241178 4.069918 197 194 177
0.417388 0.178642 2.333873 202 198 187
0.684127 0.252559 3.830931 195 191 179
0.901040 0.359366 5.586632 201 195 179
0.466440 0.233996 3.090570 203 200 183
0.453279 0.236868 3.091845 42 45 26
0.486794 0.251575 3.342414 197 200 181
0.904854 0.402571 6.093895 206 203 186
0.612662 0.312189 4.345486 160 154 138
0.604033 0.314071 4.346322 223 217 201
0.444853 0.260725 3.346477 197 191 175
0.586776 0.317836 4.347994 43 37 21
1.280874 0.606778 9.357081 194 188 172
0.659030 0.368129 5.102443 157 151 135
0.578812 0.341593 4.602581 197 191 175
0.500233 0.314699 4.102561 204 198 182
0.560735 0.345537 4.604332 205 199 183
0.619599 0.376732 5.106263 200 194 178
0.450919 0.325458 4.107338 163 157 141
0.474602 0.342310 4.358860 206 200 184
0.465974 0.344192 4.359696 203 197 181
0.414201 0.355488 4.364711 199 193 177
0.491449 0.404691 5.118676 203 197 181
0.396944 0.359253 4.366383 150 144 128
0.388315 0.361136 4.367218 70 64 48
0.352290 0.346977 4.116892 76 70 54
0.371058 0.364901 4.368890 180 174 158
0.362429 0.366783 4.369726 208 202 186
0.238298 0.327809 3.620302 200 194 178
1.799324 0.454381 9.053107 197 191 175
2.430620 0.618878 12.545403 197 194 177
2.360273 0.612638 12.298399 200 196 184
0.690243 0.243009 3.830369 195 191 179
0.445915 0.188376 2.584948 198 192 180
0.695709 0.263405 4.083657 199 193 179
0.621737 0.279543 4.090823 151 152 134
0.815601 0.345187 5.341132 38 41 22
0.485279 0.244552 3.342588 198 199 181
0.667236 0.312793 4.594051 189 186 171
0.687528 0.329953 4.845903 191 183 172
0.450328 0.252177 3.345974 207 199 188
0.593534 0.307285 4.347373 49 41 28
0.436348 0.255227 3.347328 87 81 65
0.495008 0.285605 3.849281 76 70 54
0.666750 0.356074 5.101734 66 60 44
0.656893 0.358225 5.102689 44 38 24
0.576853 0.332512 4.602806 188 182 168
0.421689 0.280013 3.602566 170 165 146
0.177254 0.182228 1.849520 141 136 117
0.399489 0.284857 3.604716 205 199 183
0.457356 0.315408 4.106746 151 145 129
0.416913 0.302643 3.856846 56 50 34
0.440918 0.318994 4.108339 128 122 106
0.558316 0.379732 5.112238 206 200 184
0.579453 0.396709 5.364008 200 194 178
0.599771 0.413864 5.615857 196 190 174
0.340291 0.297772 3.610451 199 193 177
0.332891 0.299387 3.611168 202 196 180
0.325491 0.301001 3.611884 196 190 174
0.318092 0.302616 3.612601 187 180 164
0.441880 0.383548 4.869699 185 177 164
0.350508 0.338719 4.117097 127 120 104
0.281093 0.310688 3.616185 146 141 122
0.273693 0.312303 3.616902 192 186 170
0.258893 0.315531 3.618336 177 171 157
0.236694 0.320375 3.620486 190 184 170
0.229294 0.321989 3.621203 197 191 175
0.891339 0.296705 5.080016 204 198 184
0.960472 0.323935 5.580958 200 194 180
0.798856 0.295725 4.835156 203 197 181
1.068067 0.406246 6.839632 157 158 140
0.773047 0.322513 5.091475 40 43 24
0.483763 0.237529 3.342762 202 203 185
0.674315 0.301740 4.593400 194 191 174
0.743475 0.328965 5.094340 144 138 124
0.462793 0.242104 3.344794 38 32 18
0.373073 0.219365 2.845846 158 150 139
0.591663 0.298616 4.347588 47 41 27
0.420852 0.251255 3.348856 113 107 91
0.485505 0.279463 3.850232 208 202 186
0.434884 0.269350 3.601316 171 165 151
0.454268 0.286278 3.853258 168 163 144
0.438649 0.289686 3.854771 99 93 77
0.463793 0.305357 4.106155 185 179 165
0.423030 0.293094 3.856284 204 198 182
0.447355 0.308943 4.107747 171 166 147
0.470861 0.324972 4.359289 75 69 53
0.524864 0.355504 4.861697 133 127 111
0.577227 0.386393 5.364263 188 182 166
0.597456 0.403137 5.616123 194 188 172
0.346087 0.288724 3.609918 204 198 182
0.398041 0.319703 4.112524 199 193 177
0.653227 0.454440 6.372179 89 83 67
0.381603 0.323289 4.114116 55 49 33
0.365164 0.326875 4.115709 80 74 58
0.108287 0.192507 1.856218 126 120 106
0.130974 0.208714 2.107840 183 177 161
0.286888 0.301639 3.615653 174 169 150
0.279489 0.303254 3.616369 81 76 57
0.064168 0.180976 1.606672 96 90 74
0.264689 0.306483 3.617803 186 180 166
0.249889 0.309712 3.619237 184 178 162
0.227690 0.314555 3.621387 189 183 167
0.220290 0.316169 3.622104 192 186 170
0.451956 0.195663 2.838229 204 198 182
0.744663 0.276884 4.586621 195 189 173
0.462160 0.214163 3.091061 199 196 179
0.770910 0.312609 5.091720 55 58 39
0.482248 0.230506 3.342936 196 197 179
0.711776 0.304785 4.843628 207 204 187
0.780347 0.331276 5.344627 104 98 84
0.461278 0.235081 3.344968 61 55 41
0.683432 0.310969 4.846374 207 201 189
0.598421 0.288064 4.346966 93 87 75
0.433317 0.241182 3.347676 131 128 111
0.426327 0.242707 3.348353 29 26 9
0.527764 0.282754 4.099990 200 197 180
0.448079 0.258687 3.600067 197 191 175
0.398366 0.248807 3.351062 164 158 142
0.452575 0.278432 3.853453 195 189 173
0.527742 0.324211 4.607634 67 61 49
0.486248 0.312538 4.357833 181 175 159
0.413527 0.286951 3.857235 197 192 173
0.437354 0.302479 4.108748 175 170 151
0.429135 0.304272 4.109544 50 45 26
0.544184 0.362075 5.113683 165 160 141
0.351882 0.279675 3.609386 202 196 180
0.329683 0.284518 3.611536 62 56 40
0.351052 0.300582 3.863287 79 73 57
0.355164 0.320411 4.116710 100 97 82
0.292684 0.292590 3.615120 57 53 41
0.312005 0.309101 3.867069 162 156 140
0.277884 0.295819 3.616554 193 188 169
0.270485 0.297434 3.617270 111 106 87
0.059152 0.177733 1.607174 64 57 39
0.255685 0.300663 3.618704 188 181 163
0.272958 0.317620 3.870852 198 192 176
0.240886 0.303892 3.620138 194 188 172
0.257339 0.321028 3.872365 96 90 74
0.218686 0.308735 3.622288 193 187 171
0.118731 0.268365 2.870508 190 185 166
0.557472 0.227036 3.589499 199 193 177
0.542672 0.230265 3.590933 195 192 175
0.494713 0.220433 3.341756 100 101 83
0.480733 0.223483 3.343110 208 209 191
0.473743 0.225008 3.343787 200 197 180
0.700279 0.297354 4.844778 71 65 51
0.459762 0.228059 3.345142 76 70 56
0.446475 0.251253 3.600251 203 197 181
0.431676 0.254481 3.601685 169 164 145
0.450882 0.270586 3.853647 193 187 173
0.427453 0.275698 3.855916 91 82 73
0.419644 0.277402 3.856673 97 89 76
0.507706 0.319074 4.609610 194 187 169
0.561763 0.347870 5.112019 198 193 174
0.489629 0.323018 4.611361 136 131 112
0.388406 0.284217 3.859699 62 57 38
0.410915 0.299601 4.111341 171 165 149
0.342878 0.273855 3.610287 187 181 165
0.364978 0.289328 3.861968 198 192 176
0.328079 0.277084 3.611720 155 149 133
0.291999 0.264660 3.361393 152 146 130
0.398090 0.322694 4.366406 115 112 93
0.333740 0.296144 3.864994 67 64 47
0.325931 0.297848 3.865751 103 101 88
0.283680 0.286771 3.616021 33 29 17
0.302502 0.302959 3.868020 164 158 142
1.223943 0.832547 12.916373 198 191 172
0.286884 0.306367 3.869533 116 109 90
0.029142 0.159649 1.356275 71 64 46
0.239281 0.296457 3.620322 200 194 178
0.231882 0.298072 3.621039 193 187 171
0.194137 0.286012 3.370872 147 141 125
0.232218 0.318294 3.874829 193 187 171
0.698225 0.248135 4.337366 206 200 186
0.459307 0.200940 3.091389 201 198 181
0.655081 0.257548 4.341545 97 98 80
0.325962 0.170440 2.342833 61 64 45
0.756779 0.294953 5.093166 196 195 177
0.472227 0.217986 3.343961 195 192 175
0.504069 0.230903 3.594701 89 83 69
0.458247 0.221036 3.345316 65 57 44
0.717348 0.303555 5.096986 192 188 176
0.481870 0.235746 3.596851 172 168 156
0.511664 0.249110 3.847789 31 29 14
0.416306 0.230186 3.349378 175 174 156
0.444871 0.243818 3.600435 199 196 179
0.430072 0.247047 3.601869 131 126 107
0.456998 0.261037 3.853085 204 198 182
0.449189 0.262740 3.853841 199 193 179
0.474886 0.276998 4.105176 62 55 45
0.433570 0.266148 3.855354 119 110 103
0.547063 0.320843 4.859657 40 32 21
0.378273 0.258348 3.606887 188 181 165
0.402332 0.272963 3.858380 202 196 180
0.425572 0.287757 4.109953 189 183 167
0.447992 0.302730 4.361606 74 68 52
0.378904 0.278075 3.860650 71 65 49
0.371094 0.279779 3.861406 62 56 40
0.333874 0.268035 3.611188 82 76 60
0.326475 0.269649 3.611904 142 136 120
0.319075 0.271264 3.612621 190 184 168
0.339857 0.286594 3.864432 201 198 181
0.387591 0.315908 4.367456 186 184 171
0.324238 0.290002 3.865945 82 79 70
0.274676 0.280951 3.616922 40 36 24
0.293000 0.296817 3.868971 185 178 162
0.259877 0.284180 3.618356 194 185 168
0.261762 0.303632 3.871997 195 189 173
0.230277 0.290637 3.621223 200 194 178
0.246143 0.307040 3.873510 126 120 104
0.230525 0.310448 3.875023 189 183 167
0.265162 0.100343 1.333441 192 186 170
0.353632 0.119907 1.832522 198 192 176
0.811092 0.233866 4.580292 197 194 179
0.439670 0.159436 2.585665 201 195 181
1.246152 0.352712 7.330231 204 198 184
0.454114 0.175718 2.838092 193 187 173
1.219063 0.358622 7.332855 190 184 170
1.205519 0.361578 7.334167 192 186 172
1.318036 0.395329 8.084745 200 194 180
0.457881 0.194329 3.091553 193 190 173
0.477702 0.209438 3.343458 192 191 173
0.470712 0.210963 3.344135 195 192 175
0.773670 0.300331 5.345394 92 86 72
0.456732 0.214013 3.345490 64 56 43
0.753136 0.304811 5.347383 197 191 179
0.509971 0.241264 3.847984 109 107 94
0.612248 0.277249 4.599554 72 73 57
0.594171 0.281193 4.601305 69 67 52
0.470924 0.249783 3.851766 92 86 70
0.428467 0.239613 3.602053 91 86 67
0.455305 0.253191 3.853279 200 194 178
0.447496 0.254894 3.854036 205 199 185
0.473104 0.268741 4.105381 152 143 134
0.391469 0.247685 3.605637 190 181 174
0.408449 0.263414 3.857818 167 160 144
0.432009 0.277707 4.109362 191 185 171
1.104916 0.558426 9.628344 196 190 176
0.415571 0.281293 4.110954 188 182 168
0.497775 0.321658 4.864468 204 198 184
0.339670 0.258986 3.610655 189 183 167
0.332270 0.260601 3.611372 147 141 125
0.295958 0.249090 3.361063 75 69 53
0.374476 0.290259 4.114935 80 74 58
0.310071 0.265444 3.613522 124 121 106
0.330354 0.280452 3.865383 188 184 172
0.240037 0.261290 3.366480 161 153 142
0.260069 0.295786 3.872191 200 194 180
0.228673 0.283203 3.621407 195 189 173
0.244451 0.299194 3.873704 184 178 162
0.206474 0.288046 3.623557 187 181 165
-0.002172 0.158669 1.359337 189 184 165
0.163146 0.278066 3.373929 188 183 164
0.253219 0.099043 1.334612 192 186 170
1.036860 0.289115 6.081421 190 184 170
0.458947 0.168172 2.837648 156 150 136
0.754902 0.236617 4.585770 117 111 97
0.788615 0.248264 4.836332 110 104 90
0.821508 0.260090 5.086973 161 155 141
0.853583 0.272095 5.337693 195 189 175
0.884838 0.284278 5.588493 203 197 183
0.469196 0.203940 3.344309 199 196 179
0.848754 0.311153 5.845815 75 67 54
0.455216 0.206990 3.345664 74 66 53
0.486062 0.219263 3.596503 198 192 180
0.441236 0.210040 3.347018 197 193 181
0.471262 0.222492 3.597937 182 180 167
0.390649 0.202075 3.098091 126 127 113
0.420266 0.214616 3.349049 69 70 56
0.413275 0.216141 3.349726 109 110 94
0.441663 0.228949 3.600804 184 182 167
0.434263 0.230564 3.601521 182 179 162
0.426863 0.232178 3.602237 53 47 31
0.453612 0.245345 3.853474 192 186 170
0.479542 0.258690 4.104789 200 194 178
0.437993 0.248752 3.854987 199 191 180
0.397264 0.238636 3.605105 110 101 94
0.382465 0.241865 3.606538 63 54 45
0.406756 0.255568 3.858013 194 184 174
0.398946 0.257272 3.858769 195 189 177
0.360265 0.246708 3.608689 198 192 180
0.352865 0.248323 3.609405 197 191 179
0.345466 0.249937 3.610122 198 192 178
0.338066 0.251552 3.610839 198 192 178
0.301433 0.240542 3.360560 205 199 183
0.323266 0.254781 3.612273 195 189 173
0.287453 0.243592 3.361915 158 152 136
0.336471 0.270902 3.864821 69 63 47
0.297424 0.279421 3.868603 86 82 71
0.289614 0.281125 3.869360 93 84 75
0.387772 0.354721 5.128988 108 100 89
0.712619 0.549880 8.651103 189 181 170
0.404375 0.389103 5.635034 198 192 176
0.257627 0.307106 4.126286 48 42 26
0.383021 0.393762 5.637103 190 184 168
2.389637 0.390448 11.534660 188 182 166
0.870441 0.201901 4.574613 195 192 175
1.293293 0.276788 6.818112 126 123 106
1.232990 0.271373 6.570125 104 101 82
0.787529 0.201420 4.328816 199 196 179
1.242393 0.287893 6.823043 194 191 176
0.218997 0.102603 1.337942 192 189 174
0.989293 0.250256 5.578416 191 188 173
1.068856 0.270040 6.078366 182 176 162
1.236202 0.307815 7.077471 200 194 180
0.647155 0.194903 3.834756 203 197 183
0.902693 0.250579 5.332976 92 86 72
0.752943 0.227537 4.585995 131 125 111
0.743904 0.229509 4.586871 150 144 130
0.558455 0.195684 3.589519 131 125 111
0.633922 0.216361 4.089866 192 186 172
0.617484 0.219948 4.091459 194 191 174
0.800020 0.272980 5.342921 116 117 99
0.779486 0.277460 5.344911 193 187 171
0.499257 0.208599 3.595254 93 85 72
0.453701 0.199967 3.345838 82 74 61
0.484457 0.211828 3.596687 196 187 178
0.365047 0.182167 2.846768 195 188 178
0.469658 0.215057 3.598121 189 187 175
0.389223 0.195464 3.098255 187 187 175
0.527074 0.239673 4.100217 191 193 179
0.304665 0.176769 2.598788 192 193 179
0.157748 0.134537 1.597704 192 190 175
0.432659 0.223130 3.601705 197 194 179
0.459729 0.235795 3.852912 73 67 51
0.451919 0.237499 3.853668 102 96 80
0.477760 0.250432 4.104994 194 188 172
0.436300 0.240906 3.855181 202 194 181
0.461322 0.254019 4.106586 196 187 178
0.453103 0.255812 4.107382 180 171 164
0.476895 0.269192 4.358906 190 180 171
0.341859 0.224369 3.356672 200 190 180
0.366061 0.237660 3.608156 205 196 187
0.389444 0.251129 3.859720 204 197 187
0.336462 0.244117 3.611023 119 113 99
0.329062 0.245732 3.611740 159 153 137
0.321662 0.247346 3.612457 193 187 171
0.342587 0.261352 3.864259 204 199 180
0.306863 0.250575 3.613891 191 184 166
0.299463 0.252190 3.614607 135 129 115
0.321598 0.284503 4.120121 108 106 94
0.033348 0.143107 1.355925 66 59 51
0.296940 0.289883 4.122510 45 36 29
0.482548 0.397959 6.135161 192 183 174
0.280502 0.293469 4.124102 198 190 179
0.389328 0.362583 5.382705 189 183 169
0.402060 0.378376 5.635300 194 188 172
0.255845 0.298849 4.126490 27 21 5
0.158905 0.245713 3.120565 184 178 162
0.936095 0.763290 12.436950 189 184 165
0.916791 0.200421 4.823989 195 189 173
1.218005 0.261687 6.571624 82 79 64
1.299029 0.280290 7.071437 106 103 88
0.823290 0.202681 4.579216 97 94 79
1.181058 0.269748 6.575203 96 93 78
0.850655 0.214851 4.830395 84 81 66
1.111395 0.266806 6.328121 98 95 80
0.653271 0.185353 3.834194 148 145 130
0.689674 0.195552 4.084498 158 152 138
0.456272 0.155772 2.837955 181 175 161
0.632141 0.208104 4.090071 186 183 168
0.615702 0.211690 4.091663 193 192 174
0.480146 0.186844 3.343303 133 134 116
0.473156 0.188369 3.343980 198 196 181
0.466166 0.189894 3.344657 199 193 179
0.728516 0.259639 5.096057 72 66 52
0.452186 0.192945 3.346012 115 109 95
0.746458 0.273865 5.348150 204 196 183
0.438455 0.214081 3.601172 191 189 174
0.326684 0.184045 2.850508 200 197 180
0.423655 0.217310 3.602606 65 59 47
0.416255 0.218924 3.603323 63 55 42
0.778031 0.339538 6.360413 193 186 167
0.852445 0.377724 7.114697 198 190 177
0.347333 0.215821 3.356168 194 185 178
0.364457 0.230225 3.608340 200 191 184
0.541220 0.300502 5.114200 149 140 133
0.312658 0.241526 3.613358 136 128 115
0.305258 0.243141 3.614075 183 175 162
0.209438 0.209625 2.861865 191 185 171
0.203267 0.210972 2.862463 157 151 139
0.294038 0.263729 3.868992 107 100 90
0.228501 0.241747 3.367680 122 113 104
0.123314 0.192135 2.362547 184 176 163
0.190381 0.231923 3.117542 198 191 175
0.278720 0.285212 4.124306 197 190 174
0.387103 0.352268 5.382960 196 190 174
0.376835 0.354508 5.383955 107 101 85
0.209061 0.264129 3.623393 85 79 63
0.577214 0.492194 7.902849 186 180 164
0.818303 0.176551 4.325902 135 129 113
1.144532 0.247052 6.324957 144 141 126
0.893959 0.213173 5.080069 152 149 134
0.854528 0.221776 5.083889 91 85 71
0.584846 0.174357 3.587020 206 200 186
0.520572 0.170671 3.339414 200 194 180
0.465335 0.165013 3.090933 197 191 177
0.694794 0.221207 4.591698 202 201 183
0.676717 0.225151 4.593449 155 154 136
0.471641 0.181346 3.344154 195 192 177
0.464650 0.182872 3.344831 201 195 181
0.726379 0.249735 5.096303 50 44 30
0.450670 0.185922 3.346186 141 135 121
0.744232 0.263550 5.348405 191 183 170
0.331517 0.176499 2.850064 198 195 178
0.429451 0.208261 3.602073 103 100 83
0.319175 0.179192 2.851259 51 45 31
0.279122 0.170221 2.601307 193 187 171
1.143648 0.442049 9.117196 192 185 166
0.366789 0.204223 3.354311 199 192 173
0.261838 0.173992 2.602981 192 184 171
0.377652 0.219562 3.607091 178 169 162
0.370252 0.221176 3.607808 207 198 189
0.331838 0.211848 3.357697 197 188 179
0.355453 0.224405 3.609241 169 160 151
0.317858 0.214898 3.359051 50 41 32
0.132153 0.149157 1.854047 96 87 78
0.183417 0.208811 2.864410 195 186 177
0.092752 0.175463 2.111696 189 182 166
0.671293 0.509687 8.655288 31 25 9
0.364342 0.346432 5.385205 182 176 160
0.376077 0.361582 5.637900 192 186 170
0.558500 0.120485 2.828100 189 183 169
0.262255 0.098726 1.587628 184 178 164
0.665504 0.166254 3.833069 196 190 176
0.702549 0.175450 4.083315 196 190 176
0.383220 0.124170 2.337412 188 182 168
0.377869 0.125338 2.337930 117 111 97
0.285267 0.110984 1.839233 175 169 155
0.453596 0.143373 2.838262 209 203 189
0.463909 0.158401 3.091097 195 189 175
0.450748 0.161273 3.092372 182 179 162
0.470125 0.174324 3.344328 191 188 173
0.463135 0.175849 3.345005 205 199 185
0.449155 0.178899 3.346360 187 184 169
0.704526 0.244133 5.098458 196 188 175
0.442646 0.197598 3.600824 191 188 173
0.435246 0.199212 3.601541 188 185 168
0.420447 0.202441 3.602974 174 168 152
0.582014 0.253584 4.856492 201 196 177
0.539182 0.245650 4.606807 200 195 175
0.233377 0.156862 2.351927 142 135 119
0.521105 0.249594 4.608558 45 36 27
0.431319 0.234626 4.109588 191 182 173
0.323332 0.206350 3.358548 184 175 166
0.346449 0.218585 3.610142 174 165 156
0.339049 0.220200 3.610859 134 125 116
0.353127 0.234407 3.863329 81 73 62
0.345318 0.236111 3.864086 66 58 47
0.309450 0.226658 3.613726 83 75 64
0.246753 0.205780 3.112132 121 113 102
0.267411 0.218551 3.363965 168 160 149
0.200591 0.198572 2.862770 194 186 175
0.194420 0.199919 2.863368 173 165 154
0.188250 0.201265 2.863966 194 186 175
0.156888 0.190829 2.613170 194 186 175
0.126346 0.180214 2.362295 188 180 169
0.023508 0.133536 1.356922 185 178 162
0.115642 0.182549 2.363332 159 152 136
0.110291 0.183717 2.363850 80 74 60
0.372384 0.333877 5.384466 177 171 157
0.384440 0.348525 5.637132 192 186 172
1.536789 0.220660 7.556229 186 180 166
1.058067 0.173477 5.318085 185 179 165
0.938973 0.182612 5.075786 190 182 169
0.671621 0.156704 3.832507 100 92 79
0.934860 0.200357 5.330019 178 170 157
0.700767 0.167193 4.083519 194 186 173
0.914325 0.204838 5.332009 190 182 169
0.728275 0.178039 4.334690 197 191 177
0.937326 0.216667 5.583616 188 182 168
0.754144 0.189242 4.586019 120 114 100
0.446087 0.138519 2.839013 56 50 36
0.482224 0.147483 3.089348 192 186 172
0.462482 0.151790 3.091260 182 176 162
0.862588 0.232973 5.590856 199 193 177
0.449321 0.154662 3.092535 84 81 64
0.681837 0.205018 4.593024 45 44 26
0.475600 0.165776 3.343825 195 193 178
0.429580 0.158969 3.094448 189 186 171
0.693342 0.219356 4.845744 170 164 150
0.683894 0.221417 4.846660 52 46 32
0.447639 0.171876 3.346534 196 193 178
0.405699 0.181027 3.350596 196 190 176
0.817911 0.293263 6.356689 102 96 82
0.426242 0.193392 3.602442 45 39 25
0.418842 0.195007 3.603158 192 187 168
0.546261 0.234597 4.606157 208 203 184
0.570518 0.246153 4.857642 181 176 157
0.265102 0.161158 2.602710 31 25 13
0.519146 0.240513 4.608783 153 144 137
0.478042 0.232634 4.358930 188 178 176
0.398291 0.216338 3.858984 173 164 155
0.352244 0.209537 3.609610 199 191 180
0.344845 0.211151 3.610326 201 192 183
0.248620 0.181602 2.858142 185 176 167
0.242450 0.182948 2.858739 187 178 169
0.265068 0.194861 3.110384 186 177 168
0.258487 0.196297 3.111021 188 179 170
0.217766 0.188334 2.861130 192 183 174
0.428798 0.277073 4.871370 204 195 186
0.155639 0.185041 2.613313 55 47 36
0.119834 0.176005 2.362946 53 46 30
0.426533 0.344957 5.886931 179 173 159
0.256937 0.264026 4.126513 186 180 166
1.232036 0.190387 6.316620 188 182 168
0.599907 0.131302 3.331811 197 189 176
0.639232 0.139139 3.581838 188 180 167
0.310496 0.095944 1.836824 167 159 146
1.022805 0.203202 5.829214 66 58 45
0.690766 0.160728 4.084520 61 53 40
0.682547 0.162522 4.085316 89 83 69
0.457091 0.129627 2.837971 69 63 49
0.860763 0.205723 5.337237 190 187 172
0.454475 0.146615 3.092062 108 102 88
1.077482 0.273357 7.093102 158 156 141
0.895448 0.247405 6.095388 198 195 180
0.614231 0.193843 4.345771 60 54 40
0.453114 0.163328 3.346030 99 93 79
0.446124 0.164853 3.346708 182 179 164
0.474692 0.191454 3.851614 198 192 178
0.432038 0.184343 3.601909 45 39 25
0.424638 0.185958 3.602626 96 90 76
0.451264 0.196565 3.853883 191 185 169
0.544302 0.225517 4.606382 199 193 177
0.395039 0.192416 3.605493 126 119 111
0.258092 0.156627 2.603411 190 181 176
0.372840 0.197259 3.607643 63 54 49
0.396598 0.208492 3.859179 193 184 175
0.419537 0.219904 4.110794 196 188 177
0.380979 0.211900 3.860692 203 195 184
0.223524 0.164169 2.606760 143 135 124
0.188244 0.155450 2.356341 166 157 148
0.182892 0.156617 2.356859 190 181 172
0.234941 0.178095 2.859491 192 183 174
0.228770 0.179441 2.860089 179 170 163
0.250480 0.191121 3.111822 177 168 161
0.106544 0.140441 1.856581 152 143 134
0.398405 0.273765 4.874351 192 184 173
0.312689 0.243216 4.121144 186 178 165
0.154390 0.179253 2.613457 185 177 164
0.113322 0.171796 2.363598 183 175 162
0.154720 0.195597 2.867262 188 182 168
0.102619 0.174131 2.364635 188 182 168
0.234567 0.276677 4.382548 191 185 169
0.597820 0.108418 3.078202 185 179 165
0.683854 0.137605 3.831383 190 184 170
0.630228 0.133319 3.582739 187 181 167
0.214167 0.080221 1.338496 185 179 165
0.644807 0.146124 3.835166 172 166 152
0.680765 0.154264 4.085521 148 142 128
0.629188 0.149531 3.836679 147 141 127
0.621378 0.151235 3.837435 164 161 146
0.571030 0.146234 3.588474 32 30 15
0.647889 0.161437 4.088705 162 160 147
0.466210 0.137132 3.090951 183 181 168
0.459629 0.138568 3.091588 140 136 124
0.817468 0.204368 5.341471 139 136 121
0.366306 0.126957 2.592951 181 178 163
0.439888 0.142875 3.093500 195 193 178
0.433307 0.144310 3.094138 180 181 165
0.465579 0.153255 3.344850 144 141 126
0.612360 0.185174 4.345986 42 36 22
0.451599 0.156305 3.346204 178 172 158
0.670350 0.204494 4.848045 190 184 170
0.437834 0.175294 3.601376 195 189 177
0.430434 0.176909 3.602093 36 30 18
0.423034 0.178523 3.602810 142 136 124
0.408234 0.181752 3.604244 189 183 171
0.159949 0.124022 1.851425 48 41 35
0.251082 0.152096 2.604113 111 102 97
0.308278 0.171589 3.106249 186 177 170
0.301697 0.173025 3.106887 188 179 170
0.601712 0.267426 5.616209 191 183 172
0.258287 0.166510 2.857253 175 167 156
0.332429 0.214277 3.865425 64 55 46
0.215091 0.175934 2.861438 78 68 59
0.208920 0.177281 2.862035 139 129 119
0.033045 0.151709 1.863718 187 181 165
1.133245 0.140227 5.564762 183 177 163
0.575906 0.121831 3.334190 191 185 171
0.510847 0.120471 3.086652 189 183 169
0.714034 0.153914 4.336170 190 184 170
0.619685 0.143389 3.837629 184 181 166
0.471364 0.129085 3.090477 164 165 151
0.629669 0.156766 4.090502 178 179 165
0.451622 0.133392 3.092389 188 186 171
0.445042 0.134828 3.093027 188 186 171
1.428033 0.309233 9.343807 189 190 174
0.588574 0.165732 4.094483 136 137 121
0.425300 0.139135 3.094939 25 23 8
0.572136 0.169318 4.096076 130 124 110
0.601861 0.178388 4.347036 193 187 173
1.383713 0.350013 9.855781 193 187 173
1.061262 0.295925 7.856296 192 186 172
0.295922 0.136252 2.599792 191 185 173
0.324828 0.145501 2.850832 39 33 21
0.421430 0.171089 3.602994 142 136 124
0.391831 0.177547 3.605861 62 55 47
0.158966 0.119468 1.851538 160 153 143
0.186233 0.129074 2.102737 187 181 169
0.300271 0.166413 3.107050 191 183 170
0.140837 0.123424 1.853294 175 167 156
0.166466 0.133387 2.104652 36 28 17
0.488789 0.234167 4.865669 119 111 100
0.104579 0.131334 1.856807 187 177 167
0.100047 0.132323 1.857246 194 184 174
0.145874 0.184544 2.868167 188 182 168
0.162081 0.196563 3.120437 189 183 169
0.861400 0.572853 11.683257 189 181 168
0.882370 0.599387 12.188906 186 180 164
1.860200 0.212373 9.555851 182 176 162
1.260893 0.161641 6.567805 181 175 161
0.936224 0.156856 5.330047 187 181 167
0.737268 0.154892 4.587795 181 179 164
0.560422 0.132980 3.589559 101 102 88
0.463357 0.123909 3.091278 115 117 103
0.456776 0.125345 3.091916 155 156 142
0.563326 0.147470 3.843119 130 131 115
0.555517 0.149174 3.843876 63 66 49
0.430454 0.131088 3.094465 33 36 19
0.539898 0.152582 3.845389 130 128 113
0.876475 0.215264 6.097360 191 185 171
1.526395 0.360821 10.857395 193 187 173
1.760634 0.415583 12.611596 190 184 170
0.434625 0.160426 3.601745 188 182 170
0.419826 0.163655 3.603178 110 103 93
0.446185 0.173028 3.854467 191 184 174
0.371677 0.159036 3.354001 108 101 91
0.167048 0.112937 1.850773 142 135 125
0.162516 0.113926 1.851212 190 183 173
0.254345 0.139263 2.603842 183 177 163
0.185162 0.124109 2.102860 195 190 171
0.305425 0.158366 3.106577 190 185 166
0.144387 0.117881 1.852968 120 113 95
0.165394 0.128422 2.104775 114 106 95
0.145627 0.132735 2.106690 190 182 171
0.289996 0.207104 3.869596 191 183 170
0.569781 0.388044 7.903961 189 183 169
0.619826 0.422497 8.660638 190 184 168
1.479802 0.159696 7.562021 176 170 156
0.977576 0.122340 5.072238 174 168 154
1.306641 0.153397 6.817265 179 173 159
0.765830 0.109766 4.077377 185 179 165
0.702203 0.108955 3.829697 186 180 166
0.523944 0.118461 3.339278 180 174 162
0.516954 0.119986 3.339955 182 176 164
0.509964 0.121511 3.340632 157 153 141
0.569443 0.137920 3.842557 71 69 54
0.601448 0.145630 4.093300 86 84 69
0.818984 0.186327 5.595287 184 182 167
0.345275 0.113364 2.595056 194 191 176
0.568572 0.152803 4.096485 183 177 163
0.718385 0.193583 5.351189 192 186 172
0.328324 0.131755 2.850541 196 189 179
0.425621 0.154606 3.602646 90 86 75
0.418221 0.156220 3.603362 46 42 31
0.444492 0.165182 3.854661 186 182 170
0.403422 0.159449 3.604796 181 177 165
0.396022 0.161064 3.605513 188 182 168
0.810359 0.261674 6.865339 187 179 166
0.157001 0.110362 1.851764 183 176 160
0.152469 0.111350 1.852203 117 109 96
0.143404 0.113328 1.853081 71 64 54
0.108479 0.106255 1.602621 165 157 146
0.614075 0.245726 5.868980 186 178 167
0.248102 0.149257 2.858312 156 150 138
0.241932 0.150604 2.858910 170 164 152
0.235761 0.151950 2.859507 188 182 170
