ply
format ascii 1.0
element vertex 1200
property float x
property float y
property float z
property uchar red
property uchar green
property uchar blue
end_header
-0.791173 0.295624 1.291501 211 208 201
-0.795751 0.294638 1.291062 210 210 200
-1.102160 0.274283 3.439222 223 223 213
-1.110851 0.290619 4.796792 155 153 141
-1.566095 0.271628 8.834413 170 168 156
-0.739757 0.302023 1.295266 183 181 168
-0.835915 0.297123 2.102300 191 189 176
-0.934626 0.291674 2.909087 195 193 180
-0.853478 0.293338 2.100612 208 204 192
-1.061117 0.280237 3.713206 206 204 191
-0.804880 0.293262 1.561099 208 206 193
-2.438448 0.178567 13.648225 209 211 200
-1.625046 0.227273 7.196200 221 221 211
-1.179278 0.265527 4.787618 204 202 187
-0.770737 0.290663 1.291113 206 204 191
-1.009166 0.273153 3.172074 207 205 192
-1.425933 0.231726 5.851843 208 208 198
-0.857244 0.284952 2.369114 180 177 170
-1.423390 0.242209 7.208414 132 129 122
-0.765096 0.287195 1.290479 169 167 155
-0.769673 0.286209 1.290039 180 178 165
-0.988365 0.265501 2.900259 205 203 190
-1.786069 0.186064 8.532925 211 208 199
-1.557362 0.218916 8.550774 219 216 209
-1.604088 0.212814 8.818047 198 195 188
-1.154360 0.250210 4.784817 162 159 152
-0.839607 0.274391 1.825669 138 138 126
-0.845036 0.273221 1.825147 160 161 147
-1.200760 0.236241 4.508595 187 188 174
-1.280269 0.227043 5.044480 196 196 186
-1.066112 0.245418 3.162718 212 209 200
-2.239812 0.104859 12.284217 161 163 150
-2.333169 0.091804 12.818553 177 179 166
-2.150549 0.120148 13.916401 224 221 212
-1.235002 0.209045 4.500327 137 141 127
-1.244687 0.206958 4.499396 151 153 140
0.901041 0.688787 7.688892 153 147 133
0.834139 0.671706 7.411027 159 155 143
0.305460 0.525815 4.103002 163 161 149
-0.947491 0.247790 3.168292 226 223 214
-2.284003 0.063574 13.625825 218 218 210
-2.341498 0.053845 13.891735 200 201 193
-0.914211 0.246975 2.357185 177 178 170
0.309633 0.513223 3.558482 153 149 137
0.189461 0.482870 3.004282 161 159 146
1.400614 0.824070 12.888396 166 164 151
-1.309361 0.193245 6.930136 224 221 212
-0.823706 0.255602 1.821617 228 225 216
-1.433026 0.159911 6.104275 125 128 119
-0.836772 0.250559 1.549036 110 116 106
0.194005 0.472971 2.460454 150 147 130
1.112788 0.712193 8.786722 152 149 130
0.936448 0.667022 7.684911 153 150 131
0.191118 0.475931 3.002609 161 159 146
-0.722096 0.268364 1.287554 222 219 210
-0.744984 0.263432 1.285354 228 225 216
-1.288595 0.176727 5.843793 221 218 209
-1.006953 0.217721 2.887478 192 193 185
-2.049235 0.045039 10.652592 154 157 148
0.046118 0.430605 1.631308 158 154 142
-0.025241 0.413869 1.353343 162 158 146
0.747404 0.615649 8.476374 172 170 158
-0.739344 0.259964 1.284720 226 223 214
-1.050595 0.199663 2.610345 131 135 121
-1.804333 0.061625 7.417839 209 211 198
-1.029158 0.202927 2.341298 225 225 213
-0.914500 0.223570 1.538995 224 224 214
-0.934512 0.219257 1.537072 225 225 215
-2.988092 -0.160956 13.810650 227 227 219
0.538945 0.541828 4.658355 151 150 129
1.443343 0.760682 11.791203 161 155 143
0.366670 0.502858 4.099805 164 158 146
-0.867983 0.232160 2.626170 225 222 213
-0.874689 0.230714 2.625526 222 219 210
-1.307595 0.150302 6.377891 226 223 214
-0.761168 0.250577 1.281447 225 222 215
-0.975115 0.209991 2.886873 229 224 218
-1.412260 0.126824 6.096836 228 223 217
-0.968680 0.208616 2.074498 129 133 119
-2.720538 -0.129361 13.559048 132 136 122
-1.021419 0.198170 2.340428 163 165 152
-1.075861 0.187357 2.606194 223 223 213
-0.966503 0.208165 1.803710 224 224 214
-1.153399 0.171567 2.869740 224 224 214
-1.885439 0.028526 7.135355 225 225 215
-1.129507 0.175796 2.601039 226 226 216
-1.475569 0.107656 4.464766 224 223 218
-1.955146 0.013503 7.128657 227 227 219
1.256327 0.694780 9.329905 151 148 129
1.276169 0.701482 10.686253 156 152 140
0.488354 0.521987 5.192781 167 163 151
1.219895 0.691295 11.764398 172 170 158
-1.574174 0.085715 9.599679 221 218 209
-0.866426 0.225635 2.624597 224 221 212
-0.824092 0.233303 1.816000 226 223 216
-1.032017 0.191402 3.421349 225 222 215
-0.919479 0.213716 2.348610 225 222 215
-0.856665 0.226283 1.812870 229 226 219
-0.862094 0.225113 1.812348 230 227 220
-2.587305 -0.126330 13.023867 117 123 111
-0.967320 0.202920 2.073125 122 125 114
-1.060892 0.183723 2.605909 122 124 111
-1.067598 0.182278 2.605265 178 178 166
-1.074304 0.180833 2.604620 223 223 213
-0.965242 0.202883 1.802436 224 224 214
-1.063921 0.182585 2.334730 225 225 215
-0.937192 0.208443 1.534244 227 227 217
-1.127949 0.169271 2.599465 227 227 217
-1.287461 0.136348 3.396801 227 226 221
0.643779 0.544805 5.746568 159 157 144
1.443240 0.718300 12.322087 169 165 153
1.042461 0.631476 9.846563 169 167 155
1.059193 0.635132 10.118950 169 167 155
1.493937 0.729525 13.951632 171 169 157
1.503008 0.731530 14.223283 172 170 158
-1.376580 0.109771 7.718648 225 222 213
-1.206740 0.146027 5.839517 225 222 213
-1.305299 0.124934 6.642383 219 216 207
-0.907620 0.209946 2.889694 224 221 212
-0.736154 0.246603 1.281498 224 221 212
-1.755687 0.028513 10.119227 223 221 209
-2.233497 -0.073769 13.864216 224 221 212
-0.759042 0.241670 1.279299 224 221 214
-1.765541 0.026289 9.576723 226 223 216
-2.199141 -0.066564 12.784402 223 220 213
-0.777352 0.237723 1.277539 225 222 215
-0.849975 0.222171 1.812118 225 224 219
-1.716609 0.036636 8.498309 227 226 221
-0.791085 0.234764 1.276219 228 225 220
-1.395753 0.105290 5.821354 230 227 222
-0.841439 0.223911 1.271381 104 110 100
-0.965960 0.197223 2.071751 111 117 107
-0.855171 0.220952 1.270061 126 128 115
-1.066040 0.175754 2.603692 136 136 124
-1.072746 0.174308 2.603047 202 202 192
-2.679615 -0.170117 12.738230 224 224 214
-2.553531 -0.143142 11.667230 224 224 214
-2.902570 -0.218019 13.529141 225 225 215
-0.946036 0.201418 1.532108 227 227 217
-0.971052 0.196027 1.529704 229 229 219
1.302880 0.668649 10.408361 161 159 146
0.163742 0.433553 2.990816 168 165 156
1.421172 0.690286 13.126424 172 170 158
1.162030 0.637136 11.206835 170 168 156
1.108804 0.626050 10.931050 173 171 159
0.102316 0.420700 2.714244 173 171 159
-1.668971 0.032778 6.874741 111 117 107
-1.051072 0.172119 2.603407 113 116 107
-1.057777 0.170674 2.602763 126 128 115
-1.105642 0.159973 2.868832 125 125 113
-1.112774 0.158436 2.868147 166 166 156
-2.548269 -0.164059 11.932964 215 215 205
-2.612308 -0.178246 12.197480 226 226 216
-1.067284 0.169011 2.331179 227 227 217
-1.214815 0.136058 3.129011 227 227 217
-1.478506 0.077298 4.457018 227 226 221
0.759758 0.545679 6.022421 153 151 138
0.362524 0.467457 3.549207 158 156 141
0.222771 0.438158 3.265217 156 152 140
0.392979 0.470736 4.634374 142 140 127
-2.610425 -0.203661 13.274241 179 180 174
-1.056220 0.164150 2.601189 111 114 103
-2.007319 -0.059719 8.732675 124 128 114
-2.065301 -0.073036 8.997663 140 142 129
-0.866778 0.209084 1.266593 198 198 188
-1.053266 0.165607 2.330913 227 227 217
-1.015748 0.175336 1.793398 227 226 221
-2.064968 -0.068859 7.644895 227 226 221
0.489210 0.482824 4.370682 157 155 142
0.252631 0.438119 2.995694 163 161 148
0.453340 0.473837 4.637686 168 166 153
0.091925 0.407253 2.168898 169 165 153
0.765690 0.528590 7.372210 141 139 127
1.421806 0.638583 14.196531 175 173 161
-0.916768 0.191114 1.801515 220 221 215
-1.946457 -0.062221 8.463835 95 98 87
-0.979445 0.176349 2.065942 125 129 115
-0.985299 0.175087 2.065380 141 143 130
-1.200219 0.122485 3.396981 175 177 166
-1.208201 0.120764 3.396214 213 213 203
-1.399734 0.075715 4.189160 226 226 216
0.625313 0.495917 5.462748 161 159 146
0.130312 0.407845 2.441424 158 154 143
1.551512 0.648157 13.121313 144 140 129
-2.108515 -0.122048 9.795839 221 222 214
-2.086702 -0.115654 9.527594 117 120 111
-1.018948 0.160154 2.330983 110 113 102
-1.025228 0.158801 2.330380 137 139 128
-1.031508 0.157447 2.329776 151 153 142
-1.585606 0.016031 5.790968 207 209 198
-1.001503 0.165606 2.062318 223 223 213
-1.171987 0.123787 2.856960 226 226 216
-1.179119 0.122250 2.856274 227 226 221
-1.186250 0.120713 2.855589 227 226 222
-2.511521 -0.212288 10.297795 227 226 221
-2.766807 -0.275768 11.624970 227 226 221
-1.310122 0.090632 3.384368 227 226 221
0.312994 0.436537 2.997830 154 152 140
0.342628 0.436542 3.811374 164 162 149
1.606497 0.632346 13.661182 126 123 114
0.094090 0.393614 2.436329 175 173 161
-1.483883 0.027996 5.527476 194 195 187
-1.051548 0.144576 2.596469 66 69 58
-0.976725 0.164957 2.063195 94 97 86
-1.023770 0.152690 2.328907 127 130 119
-1.654279 -0.015110 6.321797 139 141 130
-1.036330 0.149983 2.327700 189 191 180
-1.055170 0.145923 2.325889 229 229 219
-1.350413 0.069527 3.918909 226 226 216
-1.041125 0.151077 2.057007 228 227 222
-2.626940 -0.263034 11.092505 228 227 222
-2.740712 -0.291809 11.622036 228 227 222
-2.856186 -0.320951 12.151403 228 227 222
0.041566 0.383557 1.619300 169 167 155
0.107713 0.392688 2.165902 154 150 139
0.454669 0.434147 5.710839 173 171 159
-1.003471 0.150640 2.329244 222 223 215
-1.814542 -0.075421 7.653756 94 97 86
-0.940129 0.169417 1.795085 118 121 110
-0.992929 0.155475 2.060134 162 164 153
-0.998784 0.154213 2.059571 213 215 204
-1.303440 0.073176 3.651031 226 226 216
-1.039765 0.145381 2.055633 228 227 222
-2.006848 -0.116867 7.635276 228 227 223
-1.143871 0.117818 2.585874 228 227 222
-2.129681 -0.148466 8.163718 228 227 222
-1.345481 0.064115 3.646991 228 227 222
-2.445821 -0.231978 9.754074 228 227 222
-1.410198 0.047604 3.910894 228 227 222
0.344901 0.425824 3.267244 156 154 142
1.412426 0.538966 13.900351 177 175 163
0.847822 0.468252 9.255867 180 178 166
0.548612 0.430751 6.796994 174 172 160
-0.843152 0.190761 1.262983 227 227 219
-0.847729 0.189774 1.262543 174 177 166
-2.393828 -0.257380 11.374474 49 52 41
-0.897877 0.175968 1.527737 99 102 91
-1.068550 0.127191 2.591389 132 135 124
-1.075256 0.125746 2.590745 141 144 133
-1.081962 0.124301 2.590100 197 199 188
-2.070641 -0.157743 8.705398 222 222 212
-2.003412 -0.131260 7.631805 226 225 221
-1.280612 0.072492 3.381051 226 225 220
-0.962918 0.161950 1.521487 226 225 220
-1.343528 0.055934 3.645018 226 225 220
-2.062583 -0.144013 7.626119 226 225 220
-2.077376 -0.147201 7.624698 226 225 220
1.277888 0.526461 10.642367 157 155 143
0.489304 0.425179 5.168507 82 82 74
0.370329 0.409839 4.347362 156 155 150
0.182467 0.386519 2.979789 171 170 166
-0.943037 0.157683 1.792016 122 125 114
-0.990210 0.144082 2.057387 141 144 133
-1.164744 0.092731 3.120230 174 176 165
-1.172301 0.091103 3.119504 224 224 214
-0.921731 0.165709 1.524159 228 225 216
-1.100522 0.113440 2.586594 228 228 218
-1.066318 0.127679 2.050073 226 225 220
1.080349 0.503091 7.920544 160 158 146
1.193445 0.515859 8.740796 160 158 146
1.669600 0.556574 13.103267 100 98 86
0.457151 0.415209 4.623121 99 97 84
1.016679 0.477762 8.723809 177 175 163
0.396923 0.394490 5.156922 175 173 161
-0.831870 0.183826 1.261714 228 227 222
-2.243608 -0.255856 10.568862 221 222 214
-2.303452 -0.272622 10.832906 144 147 138
-0.982996 0.139648 2.056576 103 109 97
-0.988850 0.138386 2.056013 132 135 124
-0.994705 0.137124 2.055450 148 150 139
-1.170546 0.083750 3.117731 214 214 204
-1.149444 0.092167 2.849964 231 231 221
-1.156575 0.090630 2.849279 230 230 218
-2.502455 -0.315512 10.813782 229 229 219
-1.231002 0.070720 3.111921 227 226 221
-1.238559 0.069092 3.111195 227 226 221
-2.461697 -0.295120 10.008315 227 226 221
-2.574678 -0.327209 10.537047 227 226 221
2.016781 0.603687 13.400436 155 153 141
1.895095 0.573157 13.658428 163 161 149
0.675387 0.430812 5.990030 147 145 133
0.780267 0.440502 6.809165 78 76 64
0.536344 0.413759 5.167613 69 67 55
0.944318 0.454336 8.173356 119 117 105
0.494198 0.404676 5.163563 150 148 136
1.246884 0.476499 10.899284 96 93 84
-2.022518 -0.206606 9.236678 229 228 223
-2.701528 -0.421822 13.486391 209 208 203
-2.766380 -0.440103 13.749844 69 70 62
-1.022757 0.120784 2.320936 88 91 80
-2.440729 -0.326872 11.084286 188 192 178
-1.356902 0.018637 4.176622 231 233 220
-1.375421 0.014645 4.174842 233 235 224
1.054381 0.462488 8.180022 164 162 150
1.161260 0.471302 8.999021 154 152 140
-1.060555 0.096733 2.854841 228 227 222
-0.912110 0.147687 1.790803 227 226 221
-1.002458 0.118735 2.321273 232 229 224
-1.008738 0.117381 2.320669 225 224 219
-1.015018 0.116028 2.320066 102 103 95
-1.027579 0.113321 2.318859 118 121 110
-1.293933 0.027475 3.910718 122 126 112
-1.345492 0.011623 4.175339 126 128 115
-2.845594 -0.472844 13.196764 141 145 130
-1.373271 0.005636 4.172670 155 159 144
-1.660907 -0.084796 5.762484 194 196 183
-0.902986 0.159133 1.252528 213 213 201
-1.730238 -0.104479 6.025398 225 225 213
0.686904 0.414299 5.715600 160 158 146
0.210094 0.358115 3.244581 172 170 158
0.057326 0.345892 2.152035 175 173 161
1.332088 0.418787 12.783730 176 174 162
1.080657 0.400827 10.873302 181 179 167
0.162907 0.337594 3.778980 181 179 167
-2.152295 -0.290770 10.293159 227 226 221
-1.001000 0.112624 2.319799 228 227 222
-1.007280 0.111271 2.319196 213 212 207
-1.013560 0.109917 2.318592 164 165 157
-0.943422 0.135384 1.786399 115 118 107
-1.283048 0.020784 3.909494 132 135 124
-1.249681 0.033150 3.643234 104 107 96
-1.864211 -0.161400 6.817778 119 121 108
-1.877727 -0.164313 6.816479 134 136 125
-1.008568 0.121344 1.780139 154 156 145
-1.951641 -0.185419 7.078843 173 175 164
-2.060198 -0.219166 7.607344 197 199 188
1.785405 0.515960 11.744094 154 152 140
0.689548 0.403219 5.712928 146 144 132
1.414303 0.458422 10.631003 106 104 92
0.117230 0.352813 2.156287 166 164 152
0.190748 0.351825 2.971423 154 152 140
0.040460 0.341879 1.879552 157 155 143
-0.035696 0.336687 1.333520 154 152 140
0.114299 0.340960 2.694719 132 130 118
1.071420 0.384524 10.598053 132 130 118
-1.012101 0.103807 2.317119 218 219 211
-0.977557 0.116863 2.051081 85 88 79
-0.905914 0.143525 1.519251 111 114 103
-0.868816 0.157131 1.253459 96 99 88
-0.958448 0.126592 1.783560 123 126 115
-0.877971 0.155158 1.252579 142 145 136
-0.925927 0.139212 1.517328 130 133 124
-1.081183 0.088918 2.310480 104 107 100
-2.340016 -0.328272 9.192796 106 109 100
1.814054 0.476719 12.818506 163 161 149
2.000834 0.486742 14.182694 142 140 128
0.885784 0.403630 7.075099 129 127 115
1.701783 0.452522 12.807717 110 108 96
0.045858 0.343535 1.609428 149 147 135
1.147055 0.326919 13.023657 181 179 167
-1.217107 0.016920 3.911291 230 229 224
-2.817290 -0.551670 13.719687 68 69 61
-0.951758 0.122480 1.782808 100 101 93
-1.084471 0.075738 2.577798 198 199 191
-0.962616 0.120140 1.781765 237 238 233
-1.640863 -0.116733 5.755304 219 221 218
-1.073444 0.084161 2.309610 205 207 206
-0.944778 0.130031 1.514231 182 184 183
-0.954785 0.127874 1.513270 145 147 146
-0.959788 0.126796 1.512789 133 135 132
1.819269 0.454871 12.813238 167 165 153
1.838760 0.452590 13.084249 144 142 130
0.683450 0.378604 5.706490 170 168 156
1.626512 0.426292 12.256438 155 153 141
0.819900 0.356158 7.872710 178 175 166
1.121328 0.362786 10.323922 184 181 172
0.863174 0.339557 8.953422 178 175 166
0.911842 0.337083 9.496376 171 168 159
0.891108 0.326132 9.763522 180 178 166
-1.035974 0.079330 2.580736 227 226 221
-1.732805 -0.181043 7.089126 225 224 219
-1.828000 -0.214523 7.618254 176 175 170
-2.130160 -0.325018 9.473187 65 66 58
-2.521234 -0.467639 11.857852 57 58 52
-0.950497 0.117198 1.781534 136 137 131
-0.955926 0.116028 1.781013 174 175 169
-2.842573 -0.575786 13.441802 220 221 215
-2.166501 -0.319887 8.931418 231 232 227
-1.109666 0.069930 2.304516 203 205 202
-1.631034 -0.094291 4.407521 168 168 158
-1.550744 -0.064023 3.876960 128 128 118
-1.559578 -0.065927 3.876111 109 109 99
-1.957079 -0.196970 5.721881 97 97 87
-1.145936 0.075076 1.762753 83 84 76
-2.131449 -0.247514 6.243402 111 112 104
-2.318347 -0.307240 7.032857 135 136 128
-2.390792 -0.329335 7.295033 152 153 147
-1.063526 0.105801 1.232396 171 172 166
-1.446155 -0.015555 2.810457 172 171 167
0.196250 0.358793 1.890339 151 149 136
1.229901 0.401719 8.984425 167 165 153
1.255450 0.400309 9.255909 148 146 134
0.562515 0.361642 4.884855 117 115 103
0.044242 0.326032 1.875731 141 139 127
0.687106 0.319321 7.587119 181 178 171
-0.911235 0.120106 1.783913 229 228 223
-0.916663 0.118936 1.783391 227 226 221
-0.932950 0.115426 1.781826 226 225 220
-1.026566 0.081415 2.310888 74 73 68
-1.032846 0.080061 2.310284 147 146 141
-1.039126 0.078708 2.309681 154 155 150
-1.045406 0.077354 2.309077 212 213 207
-1.784076 -0.199438 6.811587 230 231 223
-0.915980 0.132917 1.245398 228 229 224
-1.575487 -0.085311 4.141341 223 223 213
-1.539858 -0.070714 3.875736 227 227 217
-1.712413 -0.128656 4.666241 213 213 203
-1.631044 -0.097284 4.136003 142 142 132
-1.715951 -0.122501 4.396872 87 90 81
-1.219366 0.046779 2.023331 82 85 76
-1.057885 0.102334 1.231762 148 149 141
-1.444499 -0.022493 2.808784 166 167 161
2.312949 0.478564 14.193738 153 151 139
2.116291 0.436180 14.174840 160 158 146
1.063455 0.378382 7.888513 162 160 148
1.132950 0.378654 8.433030 161 159 147
0.009755 0.327751 1.333183 148 146 134
-0.003978 0.324791 1.331863 118 116 104
1.290901 0.309759 12.213085 107 104 99
1.302503 0.304907 12.483119 181 178 173
-1.064880 0.052027 2.843432 228 227 222
-0.972118 0.094077 2.045587 235 232 227
-0.977973 0.092816 2.045024 130 127 122
-1.031388 0.073951 2.308811 134 133 129
-1.037668 0.072597 2.308207 146 145 141
-1.043948 0.071244 2.307604 200 201 195
-1.983305 -0.285615 7.864648 227 228 222
-1.732931 -0.150774 4.930591 227 227 217
-1.582596 -0.096316 4.138279 229 229 219
-1.775077 -0.159857 4.926541 235 235 225
-1.619634 -0.104298 4.134720 232 232 222
-1.628894 -0.106294 4.133830 221 221 211
-1.750508 -0.147210 4.659983 204 205 197
-1.760619 -0.149389 4.659011 181 184 175
-1.941816 -0.210499 5.448358 153 156 147
-1.838295 -0.173482 4.920466 127 130 119
-1.848832 -0.175753 4.919454 107 110 99
-1.917674 -0.197943 5.181758 90 93 82
-3.221693 -0.633394 10.703759 102 105 96
-3.362460 -0.678438 11.228071 132 133 127
2.034559 0.440145 12.547808 155 153 141
1.594662 0.392066 10.892673 161 159 147
0.395328 0.304922 4.863593 139 134 130
0.874667 0.291408 8.941811 168 165 160
0.873576 0.252233 10.285758 184 182 170
0.332094 0.275717 5.395137 188 186 174
-0.908713 0.109541 1.781365 228 227 222
-1.109408 0.027347 3.106130 227 226 222
-1.669671 -0.202436 6.815636 230 229 225
-1.004809 0.073254 2.309751 232 231 226
-1.587951 -0.161459 6.017058 179 178 173
-2.794453 -0.647342 13.696616 122 121 116
-0.868078 0.133875 1.247649 151 150 145
-1.042489 0.065133 2.306130 183 184 178
-1.220306 -0.004342 3.364284 220 221 215
-1.228288 -0.006063 3.363517 228 229 223
-1.177326 0.020497 2.830793 226 227 221
-1.479008 -0.091251 4.414665 224 225 219
-1.146393 0.050528 2.027335 218 220 209
-1.152247 0.049266 2.026772 240 240 230
-1.697606 -0.146152 4.662468 239 239 229
-1.738049 -0.154868 4.658582 232 232 222
-1.748160 -0.157047 4.657610 232 233 225
-1.758271 -0.159226 4.656639 232 235 226
-2.053031 -0.261694 5.972365 224 227 218
-1.835848 -0.183734 4.917994 205 208 199
-1.846385 -0.186005 4.916982 182 185 176
-1.915128 -0.208609 5.179186 158 161 152
-1.926090 -0.210971 5.178133 129 132 123
-2.586690 -0.439014 8.071564 108 111 102
-2.661818 -0.462994 8.333155 87 93 83
-2.078794 -0.259459 5.701079 75 81 71
-3.949820 -0.896349 13.585589 108 111 102
-2.690465 -0.445804 7.523971 137 137 127
-2.771126 -0.470976 7.785030 143 143 133
-2.189701 -0.275573 5.421611 143 143 131
-2.401246 -0.344530 6.207713 137 137 125
-1.707246 -0.109289 3.317490 156 154 142
-1.444416 -0.021491 2.267506 181 182 168
-1.941568 -0.183155 4.101404 203 204 190
-1.174776 0.067775 1.218176 220 218 205
-1.463257 -0.025551 2.265696 225 223 210
-1.421553 -0.008775 2.000893 228 226 213
-1.507217 -0.035026 2.261471 226 224 209
0.398578 0.361067 2.711700 144 142 129
0.871781 0.380817 5.444183 149 147 134
0.400364 0.353228 2.980572 149 147 134
1.334923 0.365505 9.250503 161 159 147
0.294914 0.297607 4.045243 173 169 166
0.960934 0.268455 9.751966 174 173 169
-1.666532 -0.215587 6.812464 231 230 225
-0.923739 0.100749 1.778526 232 231 226
-0.929167 0.099579 1.778005 223 222 217
-1.503794 -0.139395 5.484598 209 208 203
-1.556265 -0.158927 5.748257 185 184 179
-1.775620 -0.247321 7.070682 112 111 106
-2.418570 -0.509244 11.039411 139 138 133
-1.041031 0.059023 2.304657 166 167 161
-1.047311 0.057669 2.304053 219 220 214
-2.868445 -0.680214 13.414488 225 226 218
-1.242399 -0.017271 3.360110 225 226 218
-1.168538 0.015095 2.829806 225 226 218
-1.092033 0.064478 1.762354 201 203 192
-1.150888 0.043570 2.025399 230 230 220
-1.868201 -0.217933 5.449580 240 240 230
-3.411268 -0.780757 12.824923 238 238 228
-1.946104 -0.242947 5.710794 234 234 224
-2.050189 -0.273603 5.969493 237 240 231
-1.718888 -0.152859 4.389124 234 237 228
-2.132349 -0.299533 6.230299 231 234 225
-1.040963 0.091932 1.229859 225 228 221
-2.391812 -0.388348 7.280169 208 211 204
-2.465138 -0.412375 7.541824 183 186 179
-1.054696 0.088972 1.228540 158 161 154
-1.907156 -0.209882 4.908434 107 110 103
-1.068429 0.086012 1.227220 89 92 85
-1.715283 -0.127411 3.583368 136 136 124
-1.657497 -0.106733 3.320220 139 139 127
-1.825222 -0.159329 3.841504 139 137 125
-1.980387 -0.209217 4.363995 144 142 130
-1.173713 0.063321 1.217102 170 168 155
-1.745306 -0.125658 3.311782 191 189 176
-1.753288 -0.127378 3.311015 209 207 194
-2.263368 -0.294877 5.142904 219 217 204
-3.736879 -0.776922 10.375324 233 231 218
-2.086924 -0.232178 4.353757 228 226 213
1.268811 0.368581 8.165436 159 157 145
0.082850 0.320796 1.605270 168 165 156
0.987795 0.325334 7.601248 170 167 158
0.455450 0.288533 5.132766 23 19 18
0.865833 0.255754 8.932486 167 168 163
0.059447 0.289775 2.408796 74 74 64
-1.074174 0.028137 2.837041 230 229 224
-2.252280 -0.476881 10.512985 227 226 221
-2.028406 -0.376678 8.922949 217 216 211
-1.471554 -0.135438 5.216179 192 191 186
-1.689563 -0.225719 6.538187 113 112 107
-0.865952 0.124967 1.245501 131 130 125
-2.241069 -0.448488 9.708288 214 214 206
-2.561051 -0.578064 11.557680 228 228 220
-1.196582 -0.006904 3.093870 227 227 219
-2.801474 -0.647199 12.071759 226 226 216
-1.143674 0.039135 2.024588 178 180 169
-1.149528 0.037874 2.024025 231 231 221
-3.090481 -0.692168 11.506803 236 236 226
-3.274193 -0.757739 12.294924 229 229 219
-3.405855 -0.803433 12.819455 225 225 215
-3.484191 -0.828975 13.080519 225 225 215
-1.240536 0.009600 2.283871 230 231 223
-2.541866 -0.470022 8.336424 240 241 233
-3.202741 -0.707704 11.227424 240 241 233
-2.129408 -0.311856 6.227327 237 238 232
-2.200081 -0.335747 6.489127 237 238 232
-1.637658 -0.127942 3.857259 232 233 228
-1.784435 -0.176894 4.380337 180 183 176
-1.391258 -0.022884 2.269387 137 137 125
-1.937267 -0.201173 4.097059 136 137 123
-1.946526 -0.203169 4.096169 145 143 130
-1.885008 -0.181251 3.833489 150 148 135
-1.258012 0.031811 1.476417 182 180 167
-1.335070 0.006544 1.737604 208 206 193
-1.340499 0.005374 1.737082 218 216 203
-4.262174 -0.970671 12.199982 224 222 210
-1.424688 -0.021430 1.997583 229 227 214
1.959055 0.365359 12.255089 159 157 145
1.613409 0.290865 12.221874 169 167 155
0.083120 0.306641 1.872492 163 161 149
0.542189 0.296448 5.138395 89 87 75
0.442816 0.284125 4.860363 28 23 20
1.004734 0.241531 9.747042 166 165 161
-1.469008 -0.146104 5.213607 172 171 166
-2.099628 -0.418433 9.180240 107 106 101
-1.657877 -0.223187 6.269386 117 117 109
-0.995952 0.064983 2.037279 146 146 138
-1.001806 0.063722 2.036717 199 199 191
-1.996962 -0.359928 8.116177 227 227 219
-1.194827 -0.014256 3.092097 227 227 217
-1.025224 0.058674 2.034466 225 225 215
-0.941647 0.094876 1.505533 226 226 216
-1.300722 -0.027985 2.813438 203 204 196
-1.573994 -0.132353 4.129589 229 229 221
-3.031909 -0.692115 11.238508 236 236 226
-1.268036 -0.011846 2.548097 223 223 213
-1.177441 0.025868 2.019839 230 230 220
-2.298936 -0.397727 7.281711 233 235 224
-1.206713 0.019560 2.017026 241 242 236
-1.212568 0.018298 2.016463 244 245 240
-3.809781 -0.941614 13.580097 239 240 235
-1.375328 -0.034969 2.537787 202 207 201
-1.181802 0.043117 1.482455 100 103 92
-1.661771 -0.123988 3.315707 128 130 117
-1.201815 0.038804 1.480532 128 130 117
-2.044439 -0.251933 4.621345 136 136 124
-3.158176 -0.637479 8.810034 137 137 125
-1.251847 0.028021 1.475724 143 144 130
-2.291162 -0.323296 5.134600 199 197 185
-1.350096 -0.002248 1.734765 217 215 203
-1.355525 -0.003418 1.734243 229 227 215
0.751335 0.283095 6.497650 172 170 157
0.428215 0.289694 4.319616 83 81 69
0.040950 0.291999 1.867045 75 72 67
0.531148 0.264230 5.671372 177 174 169
0.484784 0.263767 5.398544 91 90 85
0.081204 0.281615 2.407659 138 140 129
-1.063730 0.015797 2.834380 229 228 223
-0.925385 0.083733 1.774183 231 230 225
-1.099387 0.008112 2.830954 192 191 186
-1.106518 0.006575 2.830268 90 89 84
-0.905463 0.097556 1.507725 110 109 104
-0.910466 0.096478 1.507244 138 138 130
-0.915469 0.095399 1.506763 184 184 176
-1.950415 -0.356371 7.848257 223 223 213
-1.093679 0.047461 1.758011 222 222 214
-3.134199 -0.754450 11.760092 229 229 221
-1.806286 -0.230009 5.178379 227 227 217
-1.663714 -0.170692 4.386961 237 237 227
-1.397111 -0.065584 3.070716 236 236 226
-1.850134 -0.239459 5.174165 241 243 232
-1.580552 -0.133709 3.858207 236 237 229
-1.320125 -0.029932 2.541369 239 240 234
-1.110595 0.053346 1.488012 240 241 236
-1.065239 0.072651 1.223998 238 240 235
-1.180640 0.038249 1.481281 55 58 49
-1.138481 0.056865 1.216960 120 122 111
-1.143058 0.055879 1.216520 127 129 118
-1.357570 -0.018943 2.001024 137 139 128
-1.363424 -0.020204 2.000462 138 140 129
-1.438582 -0.045932 2.261612 140 140 128
-2.142153 -0.292866 4.877730 141 141 129
-2.222844 -0.319787 5.138349 144 144 132
-2.233806 -0.322149 5.137295 147 147 135
-2.244768 -0.324512 5.136242 158 158 146
-2.327161 -0.351799 5.396697 166 166 154
-1.619977 -0.104087 2.780927 164 164 152
-1.627109 -0.105624 2.780241 173 173 161
-2.434033 -0.384362 5.654800 185 185 175
-1.421969 -0.032822 1.994836 196 196 186
-1.574943 -0.084851 2.516881 212 209 200
0.371332 0.317789 2.970453 154 152 140
1.202411 0.317529 7.879060 153 151 139
0.264786 0.314756 2.423687 161 159 147
0.066487 0.311880 1.331577 163 161 149
0.911420 0.294675 6.778043 165 163 150
0.039021 0.305960 1.328938 157 155 142
1.626084 0.269326 11.675463 157 155 143
1.978470 0.255585 14.123698 161 159 147
1.029597 0.260353 8.398981 162 160 148
0.652960 0.248937 6.484942 101 98 91
0.704973 0.230251 7.294731 121 123 112
0.691032 0.227246 7.293391 59 59 47
-1.039388 0.063574 1.493569 217 217 209
-1.103276 0.039839 1.755694 228 228 220
-1.013823 0.079049 1.227763 236 237 229
-1.578500 -0.142304 3.856134 234 235 227
-2.772482 -0.608905 9.374930 232 233 225
-2.847115 -0.634956 9.636021 233 234 226
-2.075536 -0.329149 5.954478 239 240 234
-2.320327 -0.421768 7.004009 240 241 235
-1.162993 0.026969 1.749955 239 240 235
-1.114436 0.047399 1.486358 239 239 237
-1.554289 -0.117156 3.321934 238 240 235
-1.504219 -0.086434 2.790218 73 75 70
-1.128262 0.054385 1.216765 61 64 55
-1.132840 0.053398 1.216325 77 80 71
-1.749513 -0.169196 3.571437 101 102 94
-2.573053 -0.466271 6.711459 117 118 110
-1.356210 -0.024639 1.999651 139 140 132
-1.912296 -0.224210 4.092321 152 153 145
-1.921556 -0.226206 4.091431 166 168 157
-1.164883 0.046492 1.213246 172 174 163
-1.342145 -0.011642 1.732739 197 198 190
-1.347574 -0.012812 1.732217 198 199 191
0.272525 0.309999 2.422817 147 145 133
1.376015 0.298208 8.964559 142 140 128
1.326529 0.287543 8.959804 100 98 86
0.285662 0.302430 2.692234 111 109 97
0.234844 0.301878 2.419196 142 140 128
0.049240 0.303479 1.328744 130 128 116
0.454702 0.245255 5.121865 134 134 126
-0.765570 0.127870 1.250443 227 226 221
-2.042126 -0.542484 11.317627 223 222 217
-0.880638 0.071868 2.043848 222 221 216
-0.920696 0.052834 2.308152 228 227 222
-1.045979 -0.005370 3.100575 234 233 229
-1.424414 -0.190938 5.745750 233 232 228
-0.895719 0.079018 1.774244 231 230 226
-0.950891 0.056727 2.037096 231 230 226
-1.715802 -0.222536 4.913287 213 214 206
-2.217090 -0.424182 7.278501 221 221 213
-2.231458 -0.427278 7.277121 234 234 226
-1.107444 0.033387 1.753898 236 236 226
-1.068245 0.052236 1.489511 234 235 227
-1.073248 0.051158 1.489030 228 229 221
-1.923303 -0.288059 5.429655 230 231 223
-1.991453 -0.313147 5.691260 232 233 225
-2.003266 -0.315693 5.690124 231 232 224
-2.821671 -0.637688 9.365636 234 235 229
-2.084932 -0.343695 5.950431 236 237 231
-1.161733 0.021687 1.748681 237 238 232
-2.868136 -0.637302 9.093017 238 240 235
-2.946076 -0.664500 9.353681 237 239 234
-1.966619 -0.266192 4.621030 85 88 81
-2.042431 -0.292932 4.881898 76 79 72
-2.185220 -0.344508 5.404485 67 70 63
-3.394542 -0.792357 10.115048 65 68 61
-1.739152 -0.175565 3.570272 88 91 84
-1.747561 -0.177377 3.569464 121 124 117
-1.755969 -0.179190 3.568656 149 152 145
-1.354850 -0.030335 1.998277 170 173 166
-1.988511 -0.260510 4.350772 194 195 187
-1.595271 -0.113353 2.779636 166 167 159
-1.473346 -0.066274 2.255044 105 108 99
-2.993413 -0.612298 7.740207 87 90 81
-1.340884 -0.016925 1.731465 77 80 71
-3.169723 -0.671098 8.259573 72 75 68
-2.012000 -0.255171 4.080360 71 72 66
0.334160 0.306022 2.695171 148 146 134
1.437832 0.272983 9.502351 75 73 61
1.911527 0.223369 13.300498 135 132 123
0.050161 0.277323 1.863746 161 158 151
1.217354 0.171285 10.821387 138 138 130
0.446613 0.232733 5.118381 132 132 124
-2.213679 -0.698213 13.708213 228 225 218
-0.994579 0.008813 2.835528 229 228 223
-1.980488 -0.507085 10.246039 229 228 223
-1.338242 -0.162779 5.214906 232 231 227
-1.853226 -0.414640 8.650000 232 231 227
-0.876961 0.088343 1.506607 230 229 225
-1.922983 -0.321312 5.962849 218 219 213
-1.935222 -0.323950 5.961673 216 216 208
-1.681169 -0.215015 4.645863 214 214 206
-2.389173 -0.508476 8.062408 232 232 224
-1.484951 -0.129381 3.592539 234 234 224
-2.474997 -0.537809 8.322205 239 239 229
-2.765871 -0.654680 9.634477 237 237 227
-1.011697 0.070141 1.225615 233 234 226
-1.020852 0.068168 1.224735 226 227 219
-3.298839 -0.845399 11.459574 235 236 228
-2.327793 -0.451902 6.996127 233 234 226
-3.635152 -0.972063 12.767479 233 234 229
-3.443191 -0.887346 11.713747 236 237 232
-1.122119 0.035507 1.483048 237 238 233
-2.941948 -0.681792 9.349512 237 238 233
-4.090928 -1.091965 13.259770 105 108 101
-1.508038 -0.101848 2.786186 124 127 120
-1.588328 -0.129989 3.046516 118 120 115
-1.197167 0.019332 1.475836 135 137 132
-1.737199 -0.183746 3.568299 163 165 160
-1.889476 -0.238238 4.089755 187 189 184
-1.149024 0.040544 1.212418 174 176 171
-1.976576 -0.267846 4.349430 145 147 142
-1.986261 -0.269933 4.348499 110 111 105
-1.579352 -0.117218 2.779333 67 70 63
-2.075490 -0.300000 4.607969 39 42 35
-3.350708 -0.769889 9.310231 33 36 29
-1.671455 -0.147905 3.038527 24 27 20
-1.257205 0.006392 1.470067 34 37 30
-2.000590 -0.262185 4.079078 23 28 21
-1.790060 -0.184303 3.295174 23 26 19
0.192572 0.302461 1.876036 113 111 99
1.653115 0.267821 10.322388 78 76 64
1.441860 0.256106 9.498281 162 160 148
0.199306 0.292641 2.144618 168 166 154
0.615550 0.247092 5.399843 138 135 130
0.039789 0.280805 1.593419 146 143 136
0.029783 0.278648 1.592457 65 62 57
0.082216 0.267406 2.133366 155 155 147
1.171516 0.118939 11.347849 179 177 165
-0.745134 0.122908 1.250054 228 225 216
-0.780738 0.103963 1.514568 231 227 218
-0.822622 0.083665 1.778479 230 229 224
-0.795748 0.100728 1.513126 233 232 227
-0.772599 0.116989 1.247415 233 232 227
-0.945080 0.023457 2.570517 226 225 220
-1.325854 -0.182595 5.481216 227 226 221
-1.324734 -0.171082 5.213388 226 225 220
-1.371404 -0.192413 5.476838 230 229 225
-1.635733 -0.328282 7.326985 230 229 225
-1.394180 -0.197321 5.474650 232 231 227
-0.850783 0.088867 1.507837 232 231 227
-1.920141 -0.333221 5.959977 226 227 219
-1.985114 -0.358495 6.221669 219 220 212
-2.385540 -0.523697 8.058737 225 225 215
-2.401184 -0.527069 8.057234 235 235 225
-2.471264 -0.553444 8.318435 238 238 226
-1.010633 0.065687 1.224541 235 237 226
-1.182351 -0.005137 2.011845 215 217 206
-2.664742 -0.617686 8.835713 196 198 185
-3.080595 -0.786213 10.671299 222 224 211
-3.157911 -0.814148 10.931804 230 232 221
-3.319085 -0.860156 11.184251 234 235 230
-2.740139 -0.622665 8.560532 235 236 231
-2.333867 -0.456203 6.724026 234 235 230
-1.951812 -0.283688 4.617257 71 74 67
-1.961923 -0.285868 4.616285 121 124 117
-1.328713 -0.036681 1.997780 173 176 169
-1.474833 -0.090716 2.519609 103 106 99
-1.143383 0.037077 1.211784 55 58 51
-1.147961 0.036090 1.211344 26 29 22
-1.974327 -0.277269 4.347158 23 26 19
-1.577695 -0.124157 2.777660 33 36 27
-1.584827 -0.125694 2.776975 30 33 26
-3.011300 -0.658562 7.998603 24 27 20
-2.784624 -0.564622 6.948645 33 36 29
0.512647 0.295648 3.512356 152 150 138
1.437389 0.272517 8.689916 148 146 134
1.515275 0.254182 9.500878 146 144 132
1.666730 0.239996 10.586737 139 137 125
0.817676 0.267733 5.684276 130 128 116
0.085256 0.273778 1.864328 86 83 76
0.580139 0.134589 7.536232 178 176 164
-0.744070 0.118454 1.248980 228 225 216
-0.923405 0.021269 2.570877 232 231 226
-0.897480 0.038563 2.305542 227 226 221
-0.969873 -0.000453 2.834238 224 223 218
-1.462925 -0.258908 6.268596 226 225 220
-1.796078 -0.436074 8.647015 229 228 224
-0.983757 0.008261 2.565077 231 230 226
-1.063385 -0.032314 3.093078 231 230 226
-1.070942 -0.033943 3.092351 231 230 226
-1.115811 -0.055320 3.355866 231 230 226
-1.387960 -0.195924 5.204495 232 231 227
-1.551577 -0.278015 6.260076 232 231 227
-2.439394 -0.574722 8.585194 231 232 224
-1.087375 0.021051 1.751642 223 224 216
-2.525445 -0.604975 8.844751 215 216 208
-1.419151 -0.120697 3.326716 217 217 207
-1.481046 -0.145744 3.588594 234 234 224
-2.576208 -0.615916 8.839873 235 235 225
-2.702655 -0.666582 9.363374 238 238 228
-1.009570 0.061233 1.223467 235 237 226
-1.014148 0.060247 1.223027 180 182 171
-1.018725 0.059260 1.222587 73 75 62
-2.886675 -0.729657 9.881342 70 72 59
-3.417322 -0.949386 12.240783 185 187 174
-3.439776 -0.954226 12.238625 227 229 218
-3.635458 -1.031521 13.023299 239 240 232
-3.588612 -0.998010 12.492149 232 233 228
-1.768689 -0.242858 4.364430 233 234 229
-1.782307 -0.222379 3.827469 106 109 102
-1.459864 -0.094350 2.519325 51 54 47
-1.866656 -0.252265 4.087190 31 34 27
-1.473276 -0.097241 2.518036 27 30 23
-1.885175 -0.256256 4.085410 25 28 21
-4.114846 -1.111425 12.441579 29 32 25
-4.345430 -1.196242 13.222899 30 33 26
-2.697737 -0.560159 6.953412 28 31 24
-2.781765 -0.589976 7.213163 27 30 23
-1.385898 -0.054995 1.990781 25 28 21
-2.275887 -0.387291 5.119168 38 41 34
-2.286849 -0.389654 5.118115 33 36 29
-1.786352 -0.199837 3.291429 32 35 28
0.949504 0.296637 5.426302 141 139 127
0.728163 0.297503 4.334165 146 144 132
1.342742 0.259963 8.141258 133 131 119
1.044433 0.256384 6.774008 147 145 133
1.266650 0.243564 8.133946 120 118 106
0.785073 0.261198 5.410501 63 61 49
0.202997 0.269315 2.409681 42 42 32
0.231540 0.263324 2.680141 173 170 163
1.014953 0.140748 9.180625 175 175 167
-0.047215 0.263959 1.314770 179 176 167
0.500319 0.175542 5.918570 178 175 166
0.553685 0.162759 6.459132 178 175 166
0.959158 0.092295 9.978413 179 176 167
-0.074680 0.258040 1.312131 180 177 168
0.163332 0.175769 4.279886 180 178 166
-0.915142 0.016189 2.569948 224 223 218
-1.561447 -0.353811 7.594457 224 223 218
-0.908582 0.029746 2.302862 228 227 222
-1.061630 -0.039667 3.091304 229 228 224
-1.253126 -0.141651 4.411486 230 229 225
-1.862345 -0.333664 5.691525 230 231 225
-2.714739 -0.711653 9.893080 226 227 219
-2.680401 -0.692110 9.628663 221 222 214
-2.645211 -0.672383 9.364328 213 213 205
-1.479093 -0.153925 3.586621 227 227 219
-2.301084 -0.513219 7.523380 235 235 227
-2.589199 -0.636027 8.834277 237 237 227
-3.511292 -1.029038 13.029134 227 229 218
-3.590964 -1.058351 13.289194 134 136 125
-3.671488 -1.087848 13.549173 69 71 60
-1.140403 0.004068 1.745151 83 85 74
-1.603577 -0.192896 3.842375 214 215 207
-1.151260 0.001728 1.744108 230 231 225
-1.697834 -0.225353 4.101034 232 233 228
-1.707093 -0.227349 4.100144 234 235 230
-1.238122 -0.016993 1.735761 128 130 125
-1.714525 -0.204665 3.563997 21 23 18
-1.722933 -0.206477 3.563189 21 23 18
-1.873765 -0.263270 4.084127 26 28 23
-1.485130 -0.106656 2.515174 20 23 16
-3.078878 -0.729421 8.519503 25 28 21
-1.998884 -0.302378 4.339821 30 32 27
-3.128364 -0.740086 8.514748 26 28 23
-2.651969 -0.552415 6.686511 25 27 22
-1.319555 -0.034543 1.727935 24 26 21
-3.735122 -0.955853 10.330457 34 37 30
-3.389764 -0.820708 9.025062 33 36 29
2.381335 0.204098 13.856907 114 112 100
1.142645 0.239003 7.315297 102 100 88
0.235857 0.269973 2.411225 157 155 143
1.393197 0.179801 9.747840 94 94 82
0.947464 0.196937 7.296541 59 59 47
0.480306 0.234611 4.307967 170 168 156
0.663538 0.211212 5.663612 161 158 149
0.957533 0.148795 8.367937 121 117 114
0.447795 0.177293 5.375273 170 167 158
0.503062 0.164048 5.915798 164 161 152
0.850826 0.100642 8.892898 154 151 142
-0.036776 0.248948 1.582204 140 137 130
0.016041 0.235175 2.122494 152 149 140
0.854197 0.051057 9.963651 179 176 167
0.254982 0.110582 5.891959 185 183 171
-0.802553 0.071328 1.776223 232 232 224
-0.961633 -0.025847 3.098972 225 225 217
-1.073544 -0.075122 3.623433 226 225 220
-0.778565 0.101654 1.243313 226 225 220
-0.960525 -0.000452 2.563864 225 224 219
-0.920675 0.033292 2.032479 228 227 223
-1.409021 -0.235470 5.464445 230 229 225
-0.932384 0.030769 2.031354 232 231 227
-2.431732 -0.606822 8.577454 227 228 222
-1.661665 -0.252187 4.637345 229 230 224
-2.094681 -0.446134 6.736592 229 228 223
-1.369712 -0.113797 3.059757 224 224 216
-1.431409 -0.139672 3.321435 232 232 224
-1.439391 -0.141392 3.320668 237 237 229
-2.508277 -0.610741 8.302491 234 235 227
-2.468504 -0.589591 8.038706 228 229 221
-2.540416 -0.617668 8.299402 160 161 153
-1.544406 -0.176603 3.578184 212 213 207
-1.610360 -0.203395 3.839453 231 232 227
-1.166286 -0.007064 1.741269 234 235 230
-2.131915 -0.416425 5.930192 235 236 231
-1.301216 -0.048723 1.995910 35 37 32
-3.833520 -1.085029 12.189249 29 31 26
-1.769370 -0.237666 3.824173 28 30 25
-1.778204 -0.239569 3.823324 19 21 16
-2.352216 -0.463905 5.909022 25 27 22
-2.364455 -0.466543 5.907846 22 24 19
-1.634207 -0.170801 3.034340 23 25 20
-3.229617 -0.803939 9.035994 27 29 24
-2.844980 -0.645574 7.467313 26 28 23
-2.930086 -0.676494 7.726742 28 30 25
-2.591607 -0.540655 6.421232 20 22 17
-3.316349 -0.822632 9.027659 14 16 11
-3.476877 -0.882385 9.547448 28 30 25
-3.295947 -0.805657 8.762013 39 41 36
-2.074116 -0.328501 4.330103 35 38 31
1.800780 0.223436 10.317437 150 148 136
1.121535 0.181151 8.112180 103 105 92
1.744975 0.120315 12.184560 38 40 27
0.908976 0.187393 7.021762 124 124 112
1.855499 0.066055 13.800169 167 164 155
1.030775 0.135563 8.638454 162 159 154
-0.067976 0.250118 1.310422 85 82 75
0.693921 0.102004 7.803590 86 83 76
-0.801293 0.066046 1.774949 216 217 211
-0.796103 0.080178 1.507950 224 225 219
-1.281664 -0.206658 5.206260 226 225 220
-1.958367 -0.599757 10.223692 226 225 220
-0.948588 0.021287 2.028292 226 225 221
-2.479814 -0.647073 8.836093 226 225 220
-0.978915 0.053791 1.222884 230 229 224
-1.785918 -0.315336 5.157803 226 225 220
-2.172189 -0.489680 6.993169 225 224 219
-2.780583 -0.763949 9.877182 228 227 222
-2.799206 -0.767963 9.875392 236 235 230
-2.433583 -0.598069 8.038042 238 237 232
-1.485433 -0.159482 3.314193 226 227 221
-2.699785 -0.694482 8.814954 235 236 231
-2.906263 -0.725969 8.527614 64 65 60
-2.664031 -0.621709 7.480900 31 32 27
-2.743931 -0.651943 7.740720 25 27 24
-2.103818 -0.383851 5.127254 23 25 22
-1.125398 0.022221 1.208807 22 24 21
-2.324895 -0.470538 5.908503 25 27 24
-2.214902 -0.420805 5.384077 27 29 24
-1.211370 -0.009321 1.468044 21 23 18
-2.934191 -0.705961 7.989935 21 23 18
-3.570279 -0.960173 10.336290 26 28 23
-3.659118 -0.992333 10.595251 35 37 34
-2.492597 -0.519694 6.159885 32 34 31
-2.505261 -0.522424 6.158668 27 29 26
-2.871129 -0.666343 7.460999 22 24 21
-2.400271 -0.473770 5.633761 41 43 38
-2.726786 -0.596194 6.672376 35 38 31
1.703579 0.210332 9.768534 146 144 132
1.081757 0.237701 6.500116 137 135 123
1.906527 0.173379 11.392368 133 131 119
1.081967 0.183951 7.569690 87 85 73
0.691603 0.193961 5.660457 162 162 152
0.721189 0.186889 5.930689 178 175 166
1.226606 0.094085 9.990087 64 61 54
1.778320 0.011260 14.053934 86 83 76
0.957148 0.049460 9.696804 186 183 176
0.809532 0.071440 8.613064 183 180 173
1.385004 -0.073508 14.016137 172 169 160
1.360422 -0.078807 14.013775 30 27 18
1.123510 -0.035725 12.119288 130 127 118
-0.799944 0.074231 1.506295 225 226 220
-0.804947 0.073153 1.505814 226 225 220
-2.367491 -0.841908 12.853368 228 227 223
-0.985848 -0.006181 2.290596 223 222 218
-0.973275 0.050324 1.222250 228 227 222
-1.291291 -0.098909 2.796021 229 228 223
-2.208101 -0.525131 7.253524 232 231 226
-2.222468 -0.528227 7.252144 229 228 223
-2.182893 -0.506249 6.988558 227 226 221
-2.686145 -0.735750 9.346695 233 232 227
-2.703917 -0.739581 9.344987 237 236 231
-2.776909 -0.768761 9.605361 235 234 229
-1.491562 -0.168969 3.311553 234 235 230
-1.557317 -0.196590 3.572622 235 236 231
-1.046516 0.034539 1.215211 236 237 232
-1.287293 -0.071149 2.261628 234 235 230
-1.590950 -0.203838 3.569390 234 235 230
-3.875601 -1.207285 13.510609 235 236 231
-1.234339 -0.032839 1.731939 85 86 81
-1.562684 -0.170849 3.037329 35 35 33
-1.570241 -0.172477 3.036603 23 25 22
-1.128913 0.016780 1.207293 25 27 24
-2.267581 -0.457257 5.643477 28 30 27
-3.957815 -1.157760 12.165765 28 30 25
-3.169520 -0.826479 9.032855 23 25 20
-2.739684 -0.639699 7.202441 24 26 23
-2.350274 -0.475080 5.635530 32 34 31
-2.432204 -0.506186 5.895046 25 27 24
-2.444443 -0.508824 5.893870 24 26 23
-1.834790 -0.256391 3.545958 33 35 30
-3.014328 -0.725788 7.710826 42 44 39
0.811444 0.235908 5.134489 124 122 110
2.398586 0.119792 14.107223 139 137 125
0.707560 0.199634 5.391785 158 156 144
1.113386 0.148256 8.103576 162 164 151
0.537941 0.204730 4.573648 126 128 115
0.735746 0.177940 5.929052 86 86 76
0.570360 0.142296 5.913159 162 159 152
1.269101 -0.040331 12.395008 166 163 156
0.590874 0.091180 6.984247 184 181 174
-0.093316 0.235291 1.305635 178 175 166
0.888790 -0.025107 10.487506 180 177 168
-1.829246 -0.777515 13.433662 225 222 215
-0.697557 0.105064 1.247569 223 222 217
-1.792857 -0.700251 12.100763 237 236 231
-1.580144 -0.515564 9.448412 223 222 217
-0.858051 0.028821 2.033984 225 226 220
-0.798782 0.069363 1.505121 226 227 221
-1.864498 -0.576849 9.421086 228 227 222
-0.934160 0.012418 2.026670 225 224 220
-0.978109 -0.010938 2.289726 227 226 222
-1.954801 -0.429700 6.205057 228 227 222
-1.738371 -0.313634 4.889459 231 230 225
-1.910438 -0.392371 5.674762 230 229 224
-2.302134 -0.573979 7.508076 230 229 224
-1.223033 -0.063725 2.266189 229 228 223
-1.890757 -0.374245 5.409374 229 228 223
-1.457777 -0.169854 3.312748 230 229 224
-2.081447 -0.456995 6.192887 236 235 230
-1.432459 -0.150513 3.047902 234 235 230
-1.497691 -0.178456 3.308913 237 238 233
-1.233079 -0.038121 1.730666 116 116 114
-3.366486 -0.956097 10.345866 52 52 50
-2.412313 -0.542189 6.428371 23 25 22
-3.470771 -0.992457 10.603124 25 27 24
-2.186837 -0.438057 5.380922 25 27 24
-2.198225 -0.440511 5.379827 30 32 29
-2.164499 -0.419358 5.115789 23 25 20
-4.109779 -1.213483 12.145393 29 31 28
-2.371157 -0.491666 5.630488 25 27 24
-3.516869 -0.960740 9.796856 24 26 23
-1.753135 -0.233510 3.284365 25 27 22
-4.271315 -1.262182 12.397149 47 49 46
0.801690 0.251666 4.596505 136 134 122
1.864716 0.165739 10.576395 146 144 132
1.896202 0.158205 10.846591 130 128 116
1.720638 0.149006 10.295380 133 131 119
0.202969 0.251505 2.134440 162 160 148
0.062933 0.249963 1.586644 165 162 153
0.017610 0.254515 1.315118 174 171 162
0.199092 0.222030 2.668408 174 172 160
-0.000701 0.250569 1.313359 179 177 165
0.548853 0.139895 5.640887 167 164 157
-0.022122 0.231632 1.578470 127 124 117
0.625820 0.070565 7.251303 168 165 158
0.660369 0.035052 8.056132 187 184 175
-1.351245 -0.455774 8.931502 230 226 217
-1.595519 -0.608658 10.778217 237 234 227
-1.530888 -0.508810 9.181408 216 215 210
-1.881887 -0.656057 10.483528 225 226 220
-0.797200 0.078905 1.236818 229 228 224
-1.632699 -0.416196 7.034266 225 224 220
-0.932800 0.006722 2.025296 196 195 191
-0.976651 -0.017049 2.288252 167 166 162
-1.714851 -0.319344 4.889012 228 227 222
-1.778281 -0.347334 5.150087 229 228 223
-1.638971 -0.274351 4.361964 229 228 223
-1.788606 -0.335240 4.881925 231 230 225
-3.251833 -1.022909 11.687730 234 233 229
-3.273436 -1.027565 11.685654 234 235 230
-2.505053 -0.647166 7.751945 237 238 233
-1.290656 -0.084724 2.258077 237 238 233
-3.278529 -0.942744 10.082145 155 155 153
-1.108476 0.011819 1.206905 71 71 69
-1.437108 -0.130607 2.511174 24 26 25
-2.552837 -0.614506 6.945843 24 26 23
-3.026414 -0.816810 8.770523 20 22 19
-2.052017 -0.392010 4.856612 25 27 24
-2.140029 -0.425299 5.115324 32 34 29
-2.016261 -0.369985 4.592878 31 33 28
-2.094162 -0.401094 4.852562 23 25 20
-3.673668 -1.070864 10.845683 20 22 17
-3.213502 -0.871451 9.019714 21 23 20
-2.483773 -0.556662 6.150971 38 40 37
-2.298069 -0.473680 5.367306 28 30 27
-1.751281 -0.241277 3.282492 24 26 21
-2.188990 -0.421531 4.843449 29 31 28
0.109124 0.254800 1.589797 160 158 146
0.014095 0.249075 1.313604 121 118 109
1.123136 0.060199 9.164935 163 159 150
0.953052 0.082563 8.080348 171 168 159
1.619405 -0.039415 12.951472 174 171 162
0.092427 0.206936 2.389374 169 166 159
0.016985 0.205432 2.115064 182 179 172
-0.696394 0.081193 1.512389 230 225 219
-0.953428 -0.121754 4.158294 233 230 223
-0.903268 -0.066678 3.361933 233 230 223
-1.055612 -0.158532 4.415535 220 219 214
-0.736629 0.087277 1.241462 223 222 217
-1.174717 -0.198957 4.671150 224 225 219
-0.831481 0.052079 1.499408 231 232 226
-0.883111 0.026197 1.761507 192 191 186
-0.828180 0.067546 1.232664 194 191 184
-1.475785 -0.204823 3.573976 227 226 221
-1.274613 -0.102446 2.525066 231 230 225
-1.830545 -0.369813 5.142248 231 230 225
-1.786159 -0.345491 4.879452 232 231 226
-3.191042 -1.017152 11.420960 232 231 226
-1.020439 0.026110 1.214189 232 231 227
-2.893646 -0.864526 9.847176 233 232 228
-3.026371 -0.922642 10.368543 235 234 230
-1.896317 -0.383988 5.135927 235 234 230
-3.586438 -1.176144 12.718266 236 237 232
-1.358279 -0.105723 2.249965 203 203 201
-2.393143 -0.564840 6.423486 100 100 98
-1.759112 -0.280642 3.813810 32 34 31
-2.538524 -0.610929 6.676576 29 31 28
-1.888641 -0.323313 4.068423 23 25 22
-2.102252 -0.413616 4.849077 19 21 18
-1.157766 -0.003487 1.200992 20 22 21
-2.115021 -0.401613 4.580789 24 26 23
-1.765392 -0.252485 3.279085 50 52 49
2.395103 0.119549 12.753184 145 143 131
1.550118 0.150103 8.934667 139 137 125
1.419037 0.137043 8.655120 92 90 78
1.124048 0.134228 7.558968 94 92 80
1.652077 0.065744 10.813123 155 153 141
1.258341 0.102409 8.639677 132 128 117
0.747733 0.159458 5.654147 171 171 159
0.006003 0.242647 1.311651 131 127 118
0.572691 0.136923 5.370375 60 57 48
1.434899 -0.026634 11.593107 173 170 161
-0.021462 0.236728 1.309011 143 140 133
-0.039773 0.232782 1.307252 166 163 156
0.113083 0.174582 2.923648 164 161 154
0.940161 -0.072499 10.477759 148 145 138
0.950988 -0.085356 10.745751 187 184 177
0.142228 0.120102 3.994253 186 183 174
-0.821127 -0.026760 2.833873 227 222 216
-0.760301 0.031920 2.038865 251 248 241
-0.995252 -0.155432 4.418847 228 225 218
-0.720248 0.070934 1.508811 217 214 207
-1.115466 -0.226912 5.208148 221 220 215
-0.841851 -0.000846 2.297979 221 220 215
-0.760274 0.062307 1.504965 222 221 216
-1.597199 -0.543404 8.899171 223 222 217
-0.775283 0.059072 1.503522 222 223 217
-1.524008 -0.466867 7.838400 224 225 219
-0.830319 0.047211 1.498234 223 222 217
-0.835322 0.046133 1.497753 188 187 182
-0.865341 0.039663 1.494868 204 201 192
-2.325915 -0.548553 6.159632 130 130 128
-2.338580 -0.551282 6.158415 54 56 53
-2.822161 -0.761838 7.980602 22 24 21
-4.023828 -1.294254 12.670246 21 23 20
-4.113449 -1.328760 12.928585 24 26 23
-4.270663 -1.393024 13.447380 27 29 26
-2.900381 -0.778696 7.973086 26 28 25
-2.984043 -0.811918 8.231997 22 24 21
-1.983138 -0.368343 4.323914 21 23 20
-2.755071 -0.701807 7.186196 26 28 25
-1.863067 -0.312084 3.801550 50 52 49
-3.906149 -1.192939 11.346799 39 41 38
-1.316158 -0.072688 1.718497 33 35 32
-1.321587 -0.073858 1.717976 29 31 28
-1.255592 -0.044445 1.457366 24 26 23
-2.122783 -0.413630 4.577445 32 34 31
1.948720 0.109754 10.836626 151 149 137
2.108414 0.034789 12.719865 125 123 111
