ply
format ascii 1.0
element vertex 1202
property float x
property float y
property float z
property uchar red
property uchar green
property uchar blue
end_header
-2.816293 -9.031890 8.416240 146 135 43
-2.610405 -7.891216 7.192483 144 133 41
-2.601367 -8.037068 7.378971 152 141 49
-2.742384 -8.674298 8.089263 133 122 30
-1.970551 -8.885624 8.798619 156 145 53
-2.814574 -8.826193 8.272898 124 113 21
-2.534252 -7.999748 7.404744 148 137 45
-3.218695 -9.078243 8.390216 135 125 30
-3.206961 -9.222596 8.577739 142 132 37
-3.036080 -8.726932 8.056649 117 107 12
-3.094600 -9.040545 8.415193 137 127 32
-2.517707 -7.386118 6.679694 155 144 52
-2.605487 -7.856538 7.217510 165 154 62
-2.954323 -9.145850 8.628588 130 119 27
-1.600317 -8.290777 8.345631 187 177 82
-2.829127 -7.907883 7.184515 125 114 22
-2.710142 -7.576582 6.837648 165 155 60
-2.993261 -8.548055 7.893109 173 163 68
-2.608766 -7.398208 6.672645 174 164 69
-2.509614 -7.220510 6.507194 147 136 44
-2.863869 -8.656326 8.104560 156 145 53
-2.704814 -8.165275 7.580351 122 111 19
-1.809351 -7.745674 7.575177 146 135 43
-2.802475 -7.735957 7.016244 134 123 31
-2.288615 -6.401954 5.634439 165 154 62
-2.273863 -6.397472 5.637409 152 141 49
-2.923517 -8.950629 8.477112 165 154 62
-2.201241 -6.522649 5.837679 121 110 18
-1.874982 -8.043155 7.945539 171 160 68
-1.826697 -7.881249 7.769604 162 151 59
-1.760695 -7.713961 7.597234 164 153 61
-1.868711 -8.630201 8.689417 123 112 20
-1.682984 -7.984830 7.984183 135 124 32
-2.422702 -6.722950 5.989053 118 108 13
-2.831499 -8.169215 7.579874 136 125 33
-2.267769 -6.675885 6.020237 112 101 9
-2.570978 -7.796278 7.260510 147 136 44
-2.339047 -7.138231 6.563591 135 124 32
-1.793200 -7.560005 7.417057 137 126 34
-1.757024 -7.549016 7.424338 149 138 46
-1.777289 -8.730355 8.907460 154 143 51
-1.444699 -7.307240 7.301300 153 143 46
-1.449530 -7.455605 7.486228 151 141 44
-2.643986 -7.215633 6.513248 103 93 0
-2.525675 -6.886577 6.164768 133 122 30
-3.115600 -8.824478 8.279789 117 106 14
-2.393723 -6.553377 5.819034 153 142 50
-3.111299 -9.116288 8.652947 102 91 0
-2.945471 -8.626239 8.127885 134 123 31
-2.164068 -6.190497 5.492965 122 111 19
-1.840407 -7.850869 7.791866 97 86 0
-1.806006 -8.719766 8.915668 108 97 5
-2.733239 -7.666168 7.065495 146 136 41
-2.855943 -8.288314 7.786369 126 116 21
-2.475204 -7.441564 6.931038 170 159 67
-1.506994 -6.270135 6.007557 142 131 39
-1.761553 -7.955861 8.006641 129 118 26
-1.776202 -8.252747 8.376478 141 130 38
-1.446016 -6.690265 6.579008 132 121 29
-1.454453 -6.839045 6.763703 159 148 56
-1.437848 -6.834001 6.767045 162 152 57
-1.445173 -6.982444 6.951964 131 121 26
-1.498876 -7.437411 7.500333 188 178 83
-2.622866 -7.178753 6.539565 125 115 20
-2.289589 -6.202244 5.486811 147 137 42
-2.573050 -7.163620 6.549592 184 174 79
-2.359366 -6.515196 5.846045 146 136 41
-2.012247 -5.826237 5.169355 147 136 44
-2.222716 -6.619563 6.060188 112 101 9
-1.593340 -6.866004 6.746782 156 145 53
-1.435692 -6.672236 6.591873 132 121 29
-1.517200 -7.280508 7.322024 140 130 35
-1.499483 -7.275126 7.325590 183 173 78
-1.627315 -8.335104 8.606333 175 165 70
-2.328743 -6.055408 5.301601 154 144 49
-2.445263 -6.672955 6.025690 136 126 31
-2.908323 -8.269002 7.801340 165 155 60
-2.591913 -7.445194 6.930599 178 168 73
-2.787779 -8.523459 8.199373 147 136 44
-1.591164 -6.559036 6.384482 140 129 37
-1.738919 -7.622685 7.662940 176 165 73
-1.810663 -8.226631 8.396041 144 133 41
-1.532964 -6.832431 6.769967 121 110 18
-1.616192 -7.730941 7.874527 153 142 50
-1.702680 -8.630442 8.978431 157 147 52
-1.614398 -8.312548 8.622429 171 161 66
-2.648872 -7.010992 6.369266 122 112 17
-2.512876 -6.679283 6.022375 164 154 59
-2.890067 -7.955448 7.443508 162 152 57
-2.719654 -7.468087 6.916414 148 138 43
-2.048656 -5.376680 4.618758 144 134 39
-2.733968 -8.053227 7.662059 132 121 29
-2.761713 -8.206853 7.843606 144 133 41
-2.294953 -6.758280 6.253369 109 98 6
-1.658562 -6.710155 6.568589 133 122 30
-1.696207 -7.157185 7.122407 114 103 11
-1.353818 -5.601196 5.320005 164 153 61
-1.501756 -6.517323 6.413019 125 114 22
-1.539010 -6.819036 6.779783 151 140 48
-1.731910 -8.039218 8.238010 154 143 51
-1.707063 -8.467263 8.804405 143 133 38
-1.302951 -6.021337 5.891638 147 137 42
-1.689292 -8.607062 8.995114 162 152 57
-1.343116 -6.469132 6.444949 163 153 58
-2.602143 -6.837046 6.202080 159 149 54
-2.985602 -8.112396 7.623922 187 177 82
-2.999101 -8.261354 7.808583 138 128 33
-3.183047 -8.896665 8.521071 155 145 50
-2.204464 -5.847093 5.157856 136 126 31
-2.492437 -6.948577 6.411539 136 126 31
-2.807103 -8.203029 7.847227 163 152 60
-1.680707 -6.701991 6.574919 117 106 14
-1.737215 -7.153730 7.125679 105 94 2
-1.702522 -7.143191 7.132661 117 106 14
-1.633136 -7.122113 7.146627 163 152 60
-1.534595 -6.657605 6.604327 157 146 54
-1.304810 -5.428938 5.151555 145 134 42
-1.660753 -7.999649 8.265335 132 122 27
-1.341027 -6.309087 6.268532 181 171 76
-1.963206 -4.894184 4.089733 168 158 63
-2.973628 -8.091486 7.638843 176 166 71
-2.579507 -7.249171 6.780049 141 131 36
-2.747678 -8.022847 7.684321 118 107 15
-2.166718 -6.112150 5.549764 141 130 38
-2.105863 -5.949145 5.374388 159 148 56
-2.322367 -6.737504 6.268932 135 124 32
-2.260771 -6.574274 6.093706 171 160 68
-2.834978 -8.627438 8.417246 142 131 39
-1.869829 -7.611657 7.673385 147 136 44
-1.873300 -7.901747 8.047934 131 120 28
-1.970311 -8.509288 8.778905 159 148 56
-1.584310 -6.802333 6.792732 165 154 62
-1.540506 -6.644508 6.613924 157 146 54
-1.322829 -5.566758 5.344368 155 144 52
-1.256563 -5.402110 5.170082 147 136 44
-1.692853 -8.135966 8.459502 152 142 47
-1.426863 -6.609986 6.636798 166 156 61
-1.362160 -6.301295 6.274573 131 121 26
-1.370531 -6.448355 6.460512 173 163 68
-1.354667 -6.443536 6.463705 160 150 55
-3.070680 -8.247874 7.819690 162 152 57
-3.260154 -8.882144 8.533035 159 149 54
-2.836392 -7.888347 7.491105 139 128 36
-2.243860 -6.122392 5.543793 195 185 90
-3.101791 -8.978214 8.752780 137 127 32
-1.974642 -5.319720 4.658627 175 164 72
-2.152996 -5.950611 5.374211 149 138 46
-2.281035 -6.422040 5.912051 152 141 49
-1.937890 -7.903756 8.047691 173 162 70
-2.039888 -8.511452 8.778643 130 119 27
-1.420626 -5.439777 5.145877 140 129 37
-1.939407 -8.192572 8.423127 149 138 46
-1.948653 -8.339559 8.609136 156 145 53
-1.424441 -5.729291 5.520850 132 121 29
-1.590355 -6.788937 6.802548 154 143 51
-1.314471 -5.407529 5.167243 188 177 85
-1.314155 -5.551611 5.355177 181 170 78
-1.300515 -5.547467 5.357923 140 129 37
-1.388800 -6.150997 6.091635 162 151 59
-2.866974 -7.593029 7.120981 152 142 47
-2.437766 -6.455780 5.890553 151 141 46
-3.214721 -8.993208 8.744039 134 124 29
-2.993350 -8.350609 8.036128 143 133 38
-2.079024 -5.483775 4.834059 144 134 39
-1.918111 -5.003379 4.302097 140 130 35
-2.787737 -7.856634 7.513163 173 163 68
-2.088925 -5.630620 5.020183 157 147 52
-1.777445 -4.816810 4.142292 160 149 57
-1.485585 -5.735013 5.517853 164 153 61
-2.035746 -8.635059 8.981335 161 150 58
-1.543867 -6.328070 6.258588 143 132 40
-1.246268 -4.799287 4.437321 173 163 68
-1.652081 -7.080132 7.177391 154 144 49
-1.277633 -5.096491 4.807241 127 116 24
-1.319302 -5.396824 5.175088 168 157 65
-1.332761 -5.544751 5.360495 148 137 45
-1.213147 -5.364577 5.196454 168 158 61
-1.461268 -7.022167 7.215796 104 94 0
-2.252987 -5.668287 4.995978 131 121 26
-2.406698 -6.288972 5.718492 141 131 36
-2.597250 -6.920849 6.433590 161 151 56
-2.479105 -6.597964 6.080644 158 148 53
-2.665951 -7.228715 6.796488 157 147 52
-1.672990 -4.344113 3.605813 150 139 47
-1.921124 -5.280478 4.686048 130 119 27
-1.518707 -5.732223 5.520495 124 113 21
-1.565835 -6.033535 5.887735 154 143 51
-1.693089 -7.076677 7.180663 172 161 69
-1.363941 -5.398213 5.174920 140 129 37
-1.714345 -7.370130 7.553110 116 105 13
-1.365006 -5.542034 5.363068 162 151 59
-1.378600 -5.689662 5.548695 116 105 13
-1.460829 -6.575628 6.662322 122 112 17
-1.563174 -7.611203 7.960263 141 131 34
-2.257818 -5.657582 5.003822 131 121 26
-2.567563 -6.753781 6.261743 158 148 53
-2.294394 -5.955009 5.373679 138 128 33
-2.469252 -6.580758 6.092921 128 118 23
-2.587252 -7.189235 6.823608 121 111 16
-2.036821 -5.447290 4.859694 171 160 68
-2.216423 -6.074481 5.577982 117 106 14
-1.628986 -4.178136 3.432907 137 126 34
-2.566732 -7.326160 7.016347 119 108 16
-2.455359 -7.006011 6.661545 106 95 3
-2.005700 -5.580994 5.054567 108 97 7
-1.387179 -7.138007 7.715106 158 148 51
-0.930191 -4.042850 3.810090 125 115 18
-1.125181 -5.509861 5.674175 128 118 21
-1.151487 -5.799408 6.049547 142 132 35
-1.116947 -5.648138 5.866165 146 136 39
-0.967895 -4.898970 4.944500 150 140 43
-1.170584 -6.649876 7.187702 173 163 66
-1.188736 -6.936946 7.564714 131 121 24
-0.844344 -4.157549 4.017702 158 148 51
-0.839446 -4.296839 4.209021 145 135 40
-0.989216 -5.750114 6.082208 167 156 64
-0.974464 -5.745632 6.085177 138 128 33
-0.836990 -4.577649 4.590182 172 162 67
-1.004838 -6.317970 6.840396 185 175 80
-1.003202 -6.458251 7.031058 118 107 15
-1.057738 -7.178707 7.971747 201 190 98
-1.094709 -7.753049 8.725638 160 149 57
-1.150945 -5.645274 5.868878 136 126 29
-1.116270 -5.494303 5.685278 157 147 50
-1.460873 -8.126866 9.046347 122 112 15
-1.107801 -5.632168 5.877562 142 132 35
-0.834496 -3.723452 3.455039 139 129 32
-1.175300 -6.495299 7.007453 129 119 22
-0.805807 -3.714737 3.460813 162 152 55
-1.007132 -5.601586 5.897824 161 151 56
-1.042457 -6.454944 7.034190 136 126 31
-0.859703 -4.854612 4.974600 132 122 27
-1.112383 -7.459251 8.354172 167 156 64
-0.777195 -4.267796 4.228890 132 121 29
-0.969538 -4.175997 4.006689 162 152 55
-0.958864 -4.172754 4.008838 156 146 49
-1.530567 -8.269163 9.236888 131 121 24
-1.223514 -6.214518 6.627130 167 157 60
-1.227708 -6.355890 6.817112 168 158 63
-0.847540 -3.718643 3.458767 170 160 65
-0.970599 -4.736710 4.769778 122 112 17
-1.272972 -7.490422 8.334606 155 145 50
-0.869579 -4.285729 4.217634 180 170 75
-1.285850 -7.914627 8.904491 122 112 17
-1.493635 -7.679601 8.494022 166 156 61
-1.224219 -6.060422 6.446457 177 167 70
-1.411912 -8.213806 9.274758 104 94 0
-0.895691 -4.283529 4.219717 175 165 70
-1.038299 -6.003944 6.483877 164 154 59
-0.893881 -4.842010 4.984369 146 136 41
-1.053317 -6.567537 7.245143 139 129 34
-1.081352 -6.995326 7.812716 128 117 25
-1.121796 -7.566643 8.568863 150 139 47
-1.151794 -5.327120 5.514737 193 183 88
-1.314135 -6.631196 7.203926 183 173 76
-1.422510 -7.918878 8.903977 121 110 20
-1.084457 -5.724918 6.102245 152 141 49
-0.914693 -4.976258 5.179823 167 157 62
-0.774755 -3.818406 3.677443 140 130 35
-1.090515 -6.842100 7.631571 132 121 29
-1.193907 -7.988850 9.141307 155 144 52
-0.818794 -4.528873 4.625170 157 146 54
-0.792610 -4.381501 4.439122 176 165 73
-1.032506 -4.722060 4.781552 150 140 45
-0.897572 -3.846603 3.659323 165 154 62
-1.048375 -5.005036 5.161487 151 140 50
-1.094641 -5.436324 5.726868 124 113 23
-1.080630 -5.432068 5.729688 129 118 28
-1.351321 -7.600464 8.548673 142 131 39
-1.145656 -6.147210 6.674423 129 118 26
-0.940587 -4.833214 4.991617 143 132 40
-0.949043 -5.113939 5.373044 131 121 26
-0.804690 -3.957465 3.869582 168 158 63
-1.178742 -7.408960 8.391844 127 117 22
-0.815370 -4.238865 4.250562 146 135 43
-0.789051 -4.091792 4.064295 188 177 85
-0.811298 -4.515784 4.634510 161 150 58
-1.073404 -4.723332 4.781398 141 131 36
-1.256633 -6.027633 6.470816 121 111 16
-1.057900 -4.857360 4.976329 107 97 2
-1.060029 -5.135482 5.359522 111 100 11
-1.436473 -8.024593 9.119969 139 128 38
-1.415790 -8.018310 9.124132 139 128 38
-1.098820 -5.840954 6.310768 155 144 54
-1.137706 -6.268981 6.878374 160 149 57
-0.821721 -3.814449 3.681190 179 168 76
-1.190349 -7.117399 8.018643 158 148 53
-1.299982 -6.164987 6.664442 131 121 26
-1.087517 -4.854865 4.978692 143 133 38
-1.053515 -4.706138 4.793479 152 142 47
-1.357906 -6.874572 7.613069 154 144 49
-1.132863 -5.422231 5.737793 159 149 54
-1.118853 -5.417975 5.740613 130 119 27
-0.824964 -3.391129 3.110966 154 143 51
-1.188934 -6.131253 6.686793 151 140 48
-0.949534 -4.536153 4.622350 153 142 50
-0.919239 -4.388552 4.436391 158 147 55
-1.216168 -6.831515 7.641597 125 114 22
-0.983394 -5.930416 6.536106 151 140 48
-0.834682 -4.639661 4.837524 182 171 79
-0.841853 -3.250110 2.921125 144 134 39
-1.428071 -7.293807 8.187628 196 185 93
-0.959978 -4.252398 4.243473 168 157 65
-1.471287 -8.135282 9.332750 129 118 26
-1.392079 -7.697047 8.771782 161 150 58
-1.330217 -7.816312 8.976537 115 104 12
-1.034958 -6.346041 7.112932 149 138 46
-1.033289 -6.483592 7.305571 146 135 43
-0.839346 -3.103879 2.734695 142 131 39
-1.118753 -4.979087 5.181603 172 161 71
-1.432011 -7.140014 8.006796 129 118 26
-0.828028 -3.238158 2.929523 171 160 70
-1.459061 -7.974538 9.156649 138 127 37
-1.165101 -5.957191 6.520121 124 113 23
-1.002958 -5.357064 5.782558 169 158 66
-1.009478 -5.772198 6.358895 132 121 29
-1.039469 -6.469897 7.315606 114 103 11
-1.407788 -6.703591 7.445549 161 150 60
-0.968020 -4.234577 4.256532 152 141 51
-1.222124 -6.097679 6.711734 98 87 0
-1.026031 -4.801710 5.016040 164 153 63
-1.235518 -6.788636 7.673018 105 94 4
-1.271290 -7.349014 8.437002 118 107 15
-0.857566 -4.201023 4.278764 158 147 55
-1.063485 -6.049488 6.743664 168 157 65
-1.112896 -6.614009 7.504903 132 121 29
-1.063653 -6.324294 7.129222 159 148 56
-0.704342 -3.192833 2.960033 139 128 36
-1.060856 -6.598200 7.515377 138 127 35
-1.345838 -6.257746 6.890417 155 144 54
-1.115246 -4.954358 5.199449 109 98 8
-1.145633 -5.237664 5.579418 166 155 65
-1.002058 -4.508860 4.643105 152 141 52
-1.030592 -4.791604 5.023446 145 134 45
-1.057643 -5.073897 5.404085 182 171 81
-1.296822 -6.928045 7.865493 118 107 17
-0.764427 -3.066296 2.760512 122 111 21
-1.389015 -8.052353 9.391275 146 135 45
-1.027169 -5.338715 5.796303 155 144 52
-1.030725 -5.476833 5.988630 138 127 35
-1.067929 -5.899248 6.560268 162 151 59
-1.101865 -6.594745 7.518649 141 130 38
-0.927393 -5.171367 5.623344 125 114 22
-0.975120 -5.734017 6.385906 179 168 76
-0.848171 -3.084323 2.749025 116 105 15
-1.586157 -8.092929 9.365583 130 119 30
-1.354721 -6.792344 7.672569 138 127 38
-1.295672 -6.501010 7.297877 132 121 32
-0.791609 -3.067141 2.760410 148 137 48
-0.903077 -3.921189 3.897705 164 153 63
-1.283853 -6.770815 7.686833 151 140 50
-0.882469 -3.914929 3.901853 157 146 56
-1.380107 -7.756939 9.020479 147 136 46
-0.714324 -2.770268 2.389388 168 157 67
-1.357555 -7.886786 9.218307 185 174 82
-0.735048 -3.049959 2.771794 141 130 38
-0.934929 -4.751051 5.051024 156 145 53
-1.108954 -6.307591 7.142171 181 170 78
-1.108937 -6.444284 7.335462 124 113 23
-1.237924 -7.713747 9.049097 203 192 100
-1.170070 -7.283041 8.482889 144 133 41
-1.181824 -7.560007 8.867100 174 163 71
-1.242534 -5.514792 5.965109 151 140 50
-1.292720 -6.211826 6.922682 181 170 81
-1.103287 -5.608849 6.186671 155 144 54
-1.144266 -6.030371 6.759027 184 173 81
-0.818895 -3.613449 3.534425 132 121 29
-1.183881 -6.587836 7.525192 201 190 98
-1.001254 -5.714211 6.400742 152 141 49
-1.263844 -5.780109 6.357938 179 168 79
-1.287097 -6.331243 7.128381 109 98 9
-1.103956 -5.459503 6.002557 176 165 75
-1.412008 -8.001401 9.428612 163 152 60
-0.848755 -3.885783 3.922331 147 136 44
-0.948751 -4.868284 5.258671 119 108 16
-0.952711 -5.005505 5.451655 145 134 42
-1.227836 -7.809436 9.271900 180 169 77
-0.926879 -3.493031 3.331371 140 129 37
-0.911923 -3.624165 3.528409 147 136 46
-1.073891 -4.758789 5.048027 135 124 34
-1.461708 -7.454476 8.656488 177 166 76
-1.117625 -5.314785 5.815334 169 158 68
-0.710461 -2.613221 2.210767 186 175 85
-1.023889 -5.014955 5.446146 135 124 32
-0.992143 -4.869633 5.258508 138 127 35
-1.160300 -6.277493 7.164935 125 115 20
-1.248639 -7.254072 8.505346 166 156 61
-1.210239 -7.242407 8.513075 125 115 20
-0.687220 -2.877516 2.603499 135 125 30
-0.679510 -2.875174 2.605051 130 120 25
-1.047374 -4.197891 4.284594 132 121 29
-1.320231 -6.040169 6.755231 167 156 64
-1.393638 -6.603820 7.517551 110 99 7
-0.933811 -4.298730 4.501725 173 162 70
-1.182950 -6.269142 7.171410 112 101 9
-1.202826 -6.545855 7.555956 124 114 19
-1.274828 -7.244416 8.512832 130 120 25
-0.695656 -2.737669 2.412650 125 115 20
-0.773959 -3.438145 3.368258 147 137 42
-1.032893 -5.682206 6.424518 162 152 57
-0.858499 -4.411190 4.711157 162 152 57
-1.334170 -5.894854 6.568447 163 152 60
-0.762023 -2.481103 2.015129 138 127 37
-1.394476 -6.453165 7.334388 123 112 20
-1.161787 -5.167499 5.630544 115 104 12
-1.169858 -5.304949 5.823439 164 153 63
-1.475957 -7.422901 8.679627 129 118 28
-0.953107 -4.024125 4.116387 137 126 36
-1.477107 -7.963241 9.457474 118 107 18
-0.696047 -2.461061 2.028408 135 124 34
-1.186484 -6.119985 6.987212 134 123 31
-0.776582 -3.160514 2.984798 143 132 40
-1.245892 -6.813021 7.947854 151 141 46
-1.317827 -7.509862 8.905974 140 130 35
-1.262618 -7.223095 8.528046 217 207 112
-1.053521 -5.674601 6.430414 203 193 98
-1.089364 -6.225480 7.201279 168 158 63
-0.782032 -3.702160 3.761780 126 116 21
-0.865820 -3.045213 2.777685 128 117 25
-1.148116 -4.881519 5.252826 126 115 23
-0.966801 -3.883835 3.925957 130 119 29
-1.590037 -7.978234 9.448733 126 115 25
-1.182424 -5.430571 6.024985 159 148 58
-1.244856 -6.257483 7.181016 128 117 28
-0.987350 -4.698023 5.090418 153 142 50
-1.178435 -6.237306 7.194385 129 119 24
-0.889735 -4.129739 4.331001 159 149 54
-1.231208 -7.195941 8.547125 176 166 71
-0.852601 -3.033785 2.785715 130 119 27
-1.187659 -5.418970 6.033487 192 181 91
-1.279477 -6.118451 6.990068 111 100 10
-1.021524 -4.562595 4.896851 145 134 44
-0.985052 -4.551516 4.904192 142 131 39
-1.277149 -6.789332 7.965599 196 186 91
-1.389578 -7.763709 9.308056 158 148 53
-1.311999 -5.711505 6.408533 161 150 58
-0.971683 -3.732436 3.743409 161 150 58
-1.154197 -4.993680 5.464001 160 149 57
-1.258131 -5.829119 6.614634 148 137 45
-1.301822 -6.780235 7.972651 120 109 17
-1.034773 -4.957401 5.488038 106 96 1
-0.796141 -3.277177 3.192965 144 134 37
-1.031043 -5.224223 5.879306 117 107 12
-0.726656 -3.122091 3.011692 156 146 51
-1.272218 -5.848188 7.185693 141 130 38
-1.007542 -4.229414 4.845621 152 141 49
-0.914424 -3.688336 4.066581 135 124 32
-1.072892 -5.403044 6.627476 122 112 17
-0.931124 -4.718990 5.658783 164 154 59
-0.711350 -2.985658 3.110228 122 112 17
-0.329603 -2.100505 1.990391 148 137 47
-0.307343 -1.965546 1.795426 139 128 36
-0.210933 -5.782186 7.798192 173 162 70
-0.255936 -3.103708 3.600782 134 123 31
-0.221962 -3.862573 4.804292 144 133 41
-0.215047 -3.732274 4.606238 130 119 27
-0.204001 -3.728919 4.608462 139 128 36
-0.234895 -2.712723 3.006681 142 131 39
-0.238041 -2.457284 2.607157 123 112 20
-0.166174 -3.589230 4.416630 175 164 72
-0.225356 -1.940640 1.811928 137 128 35
-1.633299 -7.349419 9.320411 201 191 96
-0.685008 -1.947043 1.523612 187 177 82
-0.791128 -2.618568 2.500711 149 139 44
-1.003292 -3.961595 4.454924 144 134 39
-1.044829 -4.357786 5.045639 132 121 29
-1.032671 -4.354093 5.048086 181 170 78
-1.081917 -4.752626 5.637249 120 109 17
-0.911098 -4.317161 5.072555 172 161 69
-0.815134 -3.648722 4.093412 128 118 23
-0.986765 -5.235151 6.455167 160 150 55
-0.299424 -2.469198 2.599678 146 135 43
-0.255458 -3.606561 4.405752 140 129 37
-0.212160 -4.744126 6.211692 157 146 54
-0.203285 -3.846427 4.815636 135 124 32
-0.153063 -4.470459 5.824203 163 152 60
-0.239223 -2.323053 2.412103 137 126 34
-0.093484 -4.835933 6.435269 161 150 58
-0.141750 -3.699876 4.628330 126 115 25
-0.057390 -4.952826 6.642226 159 148 56
-0.814471 -2.873962 2.900765 168 157 65
-1.080071 -4.867410 5.846375 139 129 34
-0.811923 -3.510776 3.900967 144 133 41
-1.006887 -5.227731 6.460919 181 171 76
-0.943671 -4.825975 5.873829 166 156 61
-0.312649 -5.144354 6.800589 137 126 34
-0.294994 -5.394026 7.204018 132 121 29
-0.320046 -2.213696 2.200528 138 127 35
-0.317463 -1.957876 1.801172 142 131 39
-0.308500 -1.827635 1.603038 157 146 54
-0.225861 -3.077707 3.619050 133 122 30
-0.131355 -4.451692 5.837389 109 98 6
-0.156816 -3.694321 4.632637 128 117 25
-0.254984 -1.683861 1.413871 126 115 23
-0.170708 -3.060953 3.630151 130 119 27
-0.136448 -3.305581 4.036922 114 105 12
-0.811149 -2.611186 2.506434 165 155 58
-1.010464 -3.816332 4.267974 163 153 56
-0.700251 -2.068787 1.728018 220 210 115
-0.803643 -2.736084 2.708129 114 104 9
-0.817412 -2.867444 2.905541 136 126 31
-0.915374 -3.660268 4.086929 186 176 81
-0.925066 -3.790390 4.285163 112 102 7
-0.620006 -1.790055 1.343800 151 141 46
-0.942226 -4.049958 4.682077 137 127 32
-0.683293 -2.445169 2.331983 161 150 58
-0.606718 -1.913196 1.546659 142 131 39
-0.867187 -4.154341 4.897365 158 147 55
-0.324522 -2.717714 3.004747 177 166 74
-0.289411 -4.996245 6.615130 129 118 26
-0.226859 -5.867486 8.029009 117 106 14
-0.302027 -1.947815 1.808170 127 116 24
-0.266612 -1.809879 1.615114 142 131 39
-0.267076 -1.682842 1.414836 143 132 40
-0.103955 -4.812729 6.452273 185 174 82
-0.216701 -2.430605 2.626080 153 142 50
-0.209362 -2.428376 2.627558 168 157 65
-0.045947 -5.049463 6.864317 169 158 66
-0.186881 -2.548724 2.832267 130 121 28
-1.226402 -4.886839 5.835048 161 151 54
-0.696485 -1.935434 1.532236 115 105 7
-0.935498 -3.403254 3.688864 159 149 52
-1.060066 -4.202121 4.866375 111 101 6
-0.625829 -1.660295 1.145597 120 110 15
-0.706058 -2.192017 1.931171 123 113 18
-1.096409 -4.720512 5.660782 146 136 41
-1.124144 -4.982612 6.056061 133 123 28
-1.179062 -5.633483 7.047159 168 158 63
-0.587875 -1.648765 1.153236 164 155 62
-0.747632 -2.838834 2.924955 125 114 22
-0.972347 -4.555987 5.485322 174 163 71
-0.941912 -4.419904 5.291017 142 131 39
-0.843554 -3.755836 4.308662 187 176 84
-0.580949 -1.773498 1.355060 196 185 93
-0.322409 -5.373249 7.219581 124 113 21
-0.289314 -5.490034 7.426673 159 148 56
-0.313040 -2.579976 2.811997 109 98 6
-0.254737 -5.606367 7.634063 177 166 74
-0.285227 -3.205716 3.819747 132 121 29
-0.270744 -2.440290 2.620079 144 133 41
-0.110734 -5.435784 7.462616 109 98 6
-0.141016 -4.430283 5.853078 129 118 26
-0.703967 -1.932675 1.534375 139 129 31
-0.910900 -3.134015 3.298816 166 156 58
-0.716228 -2.062897 1.732584 101 91 0
-1.101223 -4.962797 6.069983 168 158 63
-0.587926 -1.770926 1.357055 137 126 34
-0.769044 -3.217419 3.528044 124 113 23
-0.693613 -2.688515 2.740520 147 136 46
-0.306164 -2.697313 3.019180 124 113 23
-0.272302 -4.078500 5.233439 136 125 35
-0.295433 -2.441058 2.619986 129 118 28
-0.254158 -3.819993 4.835738 157 146 56
-0.280755 -2.436599 2.622940 150 139 47
-0.281069 -2.183700 2.221524 149 138 46
-0.240467 -2.930351 3.433756 150 139 47
-0.275915 -1.676143 1.419854 124 113 21
-0.225362 -2.672767 3.035443 187 176 84
-0.144992 -3.913328 5.058387 137 126 36
-0.078872 -4.905223 6.677109 165 154 64
-0.035471 -5.398029 7.488552 139 128 38
-1.212226 -4.731350 5.655104 151 141 43
-1.101370 -4.445360 5.275571 151 141 46
-0.625592 -1.777676 1.352872 168 158 63
-0.755325 -3.078662 3.335990 140 129 39
-1.097090 -5.831793 7.486585 130 119 29
-0.334670 -5.095555 6.836348 133 122 32
-0.328926 -1.687555 1.412583 120 109 19
-0.244769 -7.086766 10.069212 120 109 19
-0.246556 -3.428739 4.242084 125 114 22
-0.163947 -4.412905 5.866095 139 128 36
-0.945942 -3.380111 3.705824 180 170 73
-1.093403 -4.431447 5.285498 122 112 15
-1.034912 -4.287861 5.096102 150 140 43
-0.768612 -2.697154 2.735669 180 170 75
-0.701519 -2.299320 2.145666 158 148 53
-1.018016 -4.660181 5.703010 118 107 15
-0.901770 -3.995780 4.720561 133 122 30
-0.714646 -2.680760 2.746531 110 99 9
-0.313778 -4.572066 6.045924 130 119 27
-0.270784 -4.684823 6.255747 127 116 24
-0.317888 -1.553693 1.217034 138 127 35
-0.234317 -5.051198 6.866595 141 130 38
-0.247868 -3.922956 5.053344 165 154 62
-0.247406 -2.664640 3.041744 129 118 26
-0.231246 -2.659731 3.044996 161 150 58
-0.227160 -2.029402 2.039972 156 145 53
-0.848514 -2.714355 2.724710 142 132 35
-0.911713 -3.109986 3.316236 164 154 56
-0.942888 -3.495889 3.914208 162 152 55
-0.861812 -3.220305 3.527695 197 187 92
-0.710518 -2.296001 2.148238 143 133 38
-0.863358 -3.346252 3.728800 174 164 69
-1.029826 -4.526120 5.508034 165 156 63
-0.882609 -3.603055 4.127756 107 98 5
-0.664335 -2.281972 2.157533 142 131 41
-0.347138 -2.938480 3.429870 134 124 29
-0.330102 -5.191901 7.058779 123 113 18
-0.320398 -4.310610 5.650824 137 127 32
-0.312290 -3.806236 4.846793 138 128 33
-0.299153 -3.174858 3.842360 141 131 36
-0.298539 -1.794418 1.626912 166 155 63
-0.293054 -1.792752 1.628016 146 135 43
-0.283405 -1.915298 1.831373 121 110 18
-0.259415 -2.409921 2.641864 144 133 41
-0.237363 -2.779655 3.250549 112 101 9
-0.149789 -4.635215 6.289410 117 106 14
-0.197173 -2.892923 3.460054 139 128 36
-0.154564 -3.507367 4.475708 129 118 26
-0.957080 -3.240813 3.514628 139 129 32
-1.127581 -4.418846 5.295267 165 155 58
-0.848899 -2.957675 3.133078 156 146 49
-0.646523 -1.769959 1.358855 152 142 45
-1.027356 -4.388400 5.315440 135 125 30
-0.782603 -3.062673 3.348084 123 112 20
-0.880825 -3.843336 4.538285 121 110 20
-0.572789 -1.622422 1.172033 164 153 63
-0.892933 -4.097289 4.939172 143 132 42
-0.338314 -4.179083 5.454126 146 136 41
-0.334783 -2.551222 2.833233 159 149 54
-0.334513 -1.675176 1.421654 154 144 49
-0.300536 -1.789993 1.630155 127 116 24
-0.273108 -1.781661 1.635675 119 108 16
-0.201496 -3.261557 4.070031 126 115 23
-0.262137 -1.778328 1.637883 145 134 42
-0.196728 -2.634421 3.062681 138 127 35
-1.145449 -4.287984 5.098087 153 143 46
-1.515789 -6.397247 8.254077 203 193 95
-0.791637 -2.433338 2.342586 120 110 12
-0.906937 -3.841136 4.540369 166 155 63
-0.914238 -3.968152 4.740807 173 162 72
-0.556911 -1.488450 0.976473 168 157 67
-0.355587 -4.297635 5.660882 138 128 31
-0.342688 -4.293717 5.663478 164 154 57
-0.318990 -1.790567 1.630085 160 150 55
-0.282169 -3.401750 4.262302 117 107 12
-0.261824 -3.021176 3.660672 114 104 9
-0.264758 -2.398080 2.650541 139 128 36
-0.174001 -4.616866 6.303155 152 141 49
-0.183686 -3.496630 4.484032 140 129 37
-0.264766 -1.649297 1.439091 135 124 32
-0.110435 -4.472758 6.114041 164 153 61
-1.137250 -4.149884 4.905661 166 156 59
-0.734380 -2.160637 1.954432 184 174 76
-0.795258 -2.676960 2.750796 114 104 6
-0.924131 -3.711770 4.342093 135 125 30
-0.675715 -2.391731 2.370548 132 121 29
-0.355815 -2.543467 2.839244 127 117 20
-0.347590 -3.785544 4.862444 127 117 20
-0.338285 -3.160429 3.853545 171 161 64
-0.323965 -3.902825 5.069354 102 92 0
-0.322650 -2.782307 3.250229 157 147 50
-0.324939 -1.911799 1.834687 146 136 41
-0.303844 -2.901052 3.456168 117 107 12
-0.295022 -2.898372 3.457944 159 149 54
-0.251801 -4.503190 6.094650 111 101 6
-0.262295 -3.510718 4.475303 134 124 29
-0.221133 -4.618332 6.302977 143 133 38
-0.271559 -2.268956 2.451894 142 131 39
-0.172043 -4.105589 5.504240 135 124 34
-0.153517 -3.726588 4.901506 126 115 23
-0.101761 -4.457611 6.124849 164 153 61
-0.957927 -3.215774 3.532780 199 189 92
-0.972911 -3.344444 3.732165 141 131 33
-1.025295 -3.980945 4.733625 121 111 13
-0.790355 -2.668399 2.756905 100 90 0
-0.886846 -3.318299 3.749488 188 177 85
-0.590711 -1.490693 0.975482 133 123 28
-0.294435 -2.641866 3.059122 132 122 27
-0.274827 -3.132380 3.872671 155 145 50
-0.241209 -3.618638 4.689040 156 146 51
-0.146516 -5.203400 7.339309 147 136 44
-0.268128 -1.765052 1.647612 123 112 20
-0.274337 -1.518703 1.241561 178 167 75
-0.114149 -4.572980 6.333820 135 124 32
-0.870257 -2.685600 2.745946 178 168 71
-0.961274 -3.208359 3.538214 97 87 0
-0.808581 -2.666864 2.758360 137 127 29
-0.814507 -2.792442 2.959814 149 139 44
-0.743502 -2.399539 2.366164 172 161 69
-1.334061 -6.168488 8.124062 118 108 13
-0.957244 -4.073578 4.957554 195 184 92
-0.926706 -3.940523 4.761054 136 125 35
-0.347076 -1.660225 1.432720 119 109 14
-0.333070 -3.760189 4.880537 136 126 31
-0.303727 -3.379942 4.278502 177 167 72
-0.245786 -2.495898 2.871635 141 130 38
-1.021187 -3.711878 4.343836 175 165 68
-0.811387 -2.660644 2.762917 184 174 77
-0.895052 -3.426685 3.963437 136 126 31
-0.361340 -2.030179 2.041927 148 138 43
-0.360411 -3.881460 5.085512 151 141 46
-0.322775 -4.240340 5.701767 129 119 24
-0.323429 -2.759288 3.266917 168 158 63
-0.296978 -4.232503 5.706960 178 168 73
-0.322731 -1.401263 1.035232 156 145 53
-0.308018 -1.643668 1.443979 134 124 29
-0.290341 -1.885173 1.853324 130 120 25
-0.284484 -1.883394 1.854503 141 131 36
-0.154569 -3.695492 4.924050 148 137 45
-1.007936 -3.451865 3.947317 159 149 52
-0.876952 -2.796587 2.957983 145 135 38
-0.598631 -1.357966 0.779467 157 147 50
-1.510043 -6.804931 9.127883 135 125 28
-0.950084 -3.557388 4.162100 215 205 110
-0.363726 -3.625460 4.686398 123 112 20
-0.336828 -2.386313 2.660417 136 126 31
-0.323515 -2.259172 2.459957 129 119 24
-0.252993 -3.222529 4.099267 150 140 45
-0.266818 -2.488143 2.877647 143 133 38
-0.251399 -2.483459 2.880751 139 128 36
-1.566017 -6.190195 8.112691 179 169 74
-0.745535 -2.012708 1.769487 122 111 19
-0.813826 -2.401726 2.365900 145 135 40
-0.904238 -2.920222 3.161245 158 148 53
-0.809187 -2.523074 2.570219 149 139 44
-0.851815 -3.149812 3.578568 151 141 44
-0.842683 -3.392553 3.987178 133 122 32
-0.367861 -2.266251 2.455661 171 160 68
-0.357777 -1.649400 1.440761 121 110 18
-0.345538 -3.732560 4.900783 166 155 63
-0.300286 -2.982269 3.689576 146 135 43
-0.277042 -3.711752 4.914570 105 95 0
-0.288127 -2.364787 2.675095 115 105 10
-0.239027 -3.454689 4.515450 130 120 25
-0.231686 -2.838672 3.499998 141 131 36
-0.236755 -2.349181 2.685435 164 154 59
-0.150784 -3.918913 5.346754 128 118 23
-1.060627 -3.572065 4.153544 168 157 65
-0.823331 -2.398222 2.368616 128 117 25
-0.890915 -2.786005 2.965910 206 196 101
-0.613555 -1.355155 0.781782 136 126 31
-0.754208 -2.132388 1.975265 162 152 57
-0.834759 -3.013781 3.384477 167 157 60
-0.745808 -2.497089 2.587852 164 154 57
-0.758131 -2.623250 2.789004 126 116 21
-0.653967 -1.979520 1.791809 176 166 71
-0.856233 -3.387557 3.991051 120 109 19
-1.013246 -4.537012 5.792137 123 112 22
-0.854545 -3.509462 4.195023 144 133 41
-0.226018 -6.746219 10.023227 151 141 46
-0.303293 -2.117827 2.269654 124 114 19
-0.296696 -2.115823 2.270982 139 129 34
-0.234857 -3.076378 3.912485 139 129 34
-0.225294 -3.073473 3.914410 143 133 38
-0.267455 -1.862105 1.869603 137 127 32
-0.111936 -5.120135 7.398971 184 174 79
-0.161123 -3.788484 5.149119 120 110 15
-0.821869 -2.513463 2.577419 149 139 42
-0.961337 -3.532451 4.180374 144 134 39
-0.768647 -2.619373 2.792010 157 147 50
-0.760938 -2.617031 2.793561 147 137 42
-0.869783 -3.382561 3.994924 149 139 44
-0.669298 -2.100882 1.996492 134 123 33
-0.868600 -3.504279 4.199040 156 145 53
-0.343967 -2.856596 3.489122 164 153 61
-0.340452 -1.756831 1.654924 114 103 11
-0.337847 -1.389807 1.043813 93 82 0
-0.309517 -3.578596 4.719326 153 142 50
-0.257633 -6.492696 9.622849 100 90 0
-0.322654 -1.507269 1.250750 140 130 35
-0.223132 -5.383517 7.794888 129 119 24
-0.246799 -3.437466 4.528071 123 113 18
-0.291082 -1.741833 1.664861 147 137 42
-0.294188 -1.498622 1.256479 155 145 50
-0.233442 -2.945099 3.715246 130 120 25
-0.680202 -1.611533 1.181937 151 141 46
-0.636846 -1.476624 0.986539 217 207 110
-1.168870 -4.559943 5.778447 105 95 0
-0.758723 -2.365811 2.390880 138 128 33
-0.765830 -2.489707 2.593574 155 145 48
-0.758491 -2.487478 2.595052 165 155 58
-0.852662 -3.124773 3.596721 129 119 22
-0.863401 -3.249773 3.798684 170 160 65
-0.863466 -3.371530 4.002795 178 167 75
-0.627699 -1.839059 1.600753 122 111 19
-0.361307 -1.392922 1.041997 122 111 19
-0.362192 -2.367091 2.674816 135 124 32
-0.339266 -2.603601 3.087680 123 112 20
-0.297259 -3.199528 4.116758 161 151 56
-0.252706 -5.012057 7.187595 144 134 39
-0.284884 -2.221869 2.486252 154 144 49
-0.236220 -3.546198 4.741417 184 174 79
-0.271719 -1.852657 1.876527 153 143 48
-1.051273 -3.540867 4.175966 179 169 74
-0.667696 -1.603382 1.187606 178 168 73
-0.848938 -2.872415 3.194836 141 131 36
-0.641432 -1.716801 1.397263 180 170 73
-0.781970 -2.609276 2.799573 158 148 51
-0.376474 -2.121902 2.268076 99 89 0
-0.367551 -1.876396 1.861130 143 133 38
-0.343487 -2.111881 2.274715 119 109 14
-0.317559 -3.560775 4.732385 132 122 27
-0.313492 -2.345564 2.689494 141 131 36
-0.321707 -1.255482 0.848503 155 145 50
-0.311875 -1.495291 1.259223 122 112 17
-0.148850 -6.544463 9.875614 126 116 21
-0.257380 -2.692711 3.313901 144 134 39
-0.391928 -1.993775 2.068869 163 153 58
-0.306575 -3.295739 4.339547 179 169 74
-0.315303 -2.091216 2.289156 150 140 45
-0.455827 -4.776157 6.777669 153 143 48
-0.408749 -3.076571 3.915609 147 137 42
-0.383680 -2.105935 2.279777 156 146 49
-0.391192 -3.191615 4.124252 148 138 40
-0.370485 -2.101927 2.282432 202 193 92
-0.368846 -2.823694 3.513421 146 137 36
-0.360024 -2.821014 3.515196 135 126 25
-0.345808 -1.372165 1.056741 136 126 29
-0.340122 -1.611193 1.468105 164 154 57
-0.330082 -1.247011 0.854796 132 122 25
-0.184037 -6.017745 9.088581 97 87 0
-0.246182 -3.027186 3.948329 128 118 23
-0.249708 -2.667125 3.332290 120 110 15
-0.353314 -2.210696 2.495628 103 93 0
-0.338856 -2.326342 2.703894 143 133 36
-0.316409 -1.599298 1.476276 147 137 42
-0.289333 -2.551372 3.124574 140 130 35
-0.306180 -1.596190 1.478335 158 148 53
-0.273172 -2.546463 3.127827 150 140 45
-0.381886 -2.093286 2.288905 156 147 46
-0.384090 -2.812141 3.522075 182 173 72
-0.355851 -2.205075 2.499747 142 132 34
-0.326850 -2.315963 2.711187 125 115 18
-0.327003 -1.717521 1.683145 139 129 32
-0.324991 -1.238120 0.861141 141 131 36
-0.292274 -2.544854 3.129351 138 128 33
-0.465328 -5.096520 7.422708 127 117 22
-0.351539 -2.316730 2.711094 166 156 59
-0.333493 -1.833818 1.891332 143 133 36
-0.313110 -2.424414 2.924677 179 169 74
-0.318029 -1.709763 1.688596 164 154 59
-0.250659 -4.673235 6.848370 151 140 48
-0.285489 -2.296666 2.724388 145 134 42
-0.378419 -1.366024 1.061801 138 128 31
-0.390905 -2.321957 2.708047 183 173 75
-0.357175 -1.478588 1.272172 119 109 11
-0.314318 -2.536726 3.135651 158 148 53
-0.298358 -3.007948 3.963243 140 130 35
-0.309859 -1.940285 2.106074 159 149 54
-0.220362 -4.888535 7.276459 150 139 47
-0.413423 -5.051648 7.454236 118 108 10
-0.354158 -1.473320 1.275931 138 128 31
-0.294721 -5.846331 8.922516 153 143 46
-0.323858 -1.582793 1.488371 115 105 10
-0.312126 -1.935261 2.109756 149 139 44
-0.290832 -2.284825 2.733065 125 114 22
-0.260271 -3.106284 4.183604 176 165 73
-0.272466 -2.397923 2.943103 145 134 42
-0.393840 -1.481022 1.271097 176 165 73
-0.380558 -2.897037 3.752819 105 95 0
-0.361126 -2.654459 3.343555 124 114 17
-0.316464 -1.812530 1.906433 142 132 37
-0.318811 -1.221555 0.873023 140 130 35
-0.307252 -1.336381 1.081937 130 119 27
-0.389439 -2.183318 2.516137 155 145 50
-0.371623 -2.531899 3.140223 164 154 57
-0.357613 -1.465665 1.281540 117 107 10
-0.353733 -1.818479 1.902822 133 123 26
-0.340283 -1.224406 0.871361 197 187 90
-0.336280 -1.223190 0.872167 140 130 33
-0.294289 -2.744401 3.569456 109 99 4
-0.277437 -3.093274 4.193349 147 137 42
-0.285789 -2.387827 2.950666 155 144 52
-0.378752 -1.114763 0.659198 139 128 36
-0.388355 -1.705967 1.692665 132 122 27
-0.342562 -2.398001 2.944362 172 162 65
-0.332098 -2.865452 3.774788 139 129 32
-0.338796 -1.102625 0.667240 147 137 42
-0.297501 -2.737285 3.574671 165 155 60
-0.311557 -1.682638 1.708122 143 133 38
-0.294421 -2.148062 2.539891 137 126 34
-0.404847 -1.823263 1.900317 200 189 99
-0.424213 -2.767685 3.555029 142 132 37
-0.376442 -1.110729 0.662076 145 135 38
-0.370355 -2.634007 3.358542 171 161 64
-0.355764 -1.339082 1.080891 185 175 78
-0.324831 -2.150908 2.538400 156 146 51
-0.285847 -2.608335 3.375552 118 108 13
-0.405312 -2.987806 3.979839 155 145 48
-0.348272 -2.151637 2.538312 112 102 7
-0.341304 -2.149520 2.539715 117 107 12
-0.338283 -1.563715 1.502460 138 128 33
-0.315333 -2.024653 2.337370 148 138 43
-0.283638 -2.833867 3.796756 168 158 61
-0.277459 -2.715013 3.590428 163 153 56
-0.431623 -2.287203 2.733985 194 183 91
-0.407630 -2.513189 3.154451 122 112 17
-0.350809 -2.146015 2.542432 153 142 50
-0.338162 -4.474923 6.701353 125 114 22
-0.324778 -2.721295 3.586765 116 105 13
-0.442669 -2.749016 3.568898 137 126 34
-0.373060 -2.844168 3.790973 143 132 40
-0.354011 -2.489488 3.170612 152 141 49
-0.346675 -1.905773 2.131763 166 155 63
-0.413375 -1.804365 1.914165 116 105 13
-0.414904 -2.036745 2.330480 170 160 65
-0.377464 -1.445584 1.296458 119 108 16
-0.436497 -2.384105 2.956190 163 152 62
-0.386651 -1.559640 1.506319 141 130 38
-0.379191 -1.441757 1.299263 142 131 41
-0.344982 -1.893835 2.140379 133 122 30
-0.339466 -1.082837 0.681586 159 149 54
-0.417639 -1.794917 1.921089 152 141 51
-0.373525 -2.012071 2.347575 131 120 28
-0.340537 -2.002050 2.354215 135 124 32
-0.316904 -1.533761 1.523756 140 129 37
-0.449820 -2.374008 2.963753 150 139 47
-0.513599 -4.232382 6.295719 147 136 44
-0.430418 -2.483052 3.176708 156 145 53
-0.500834 -5.837628 9.224990 149 138 46
-0.400948 -2.244224 2.764540 169 158 66
-0.367537 -1.084700 0.680763 146 135 43
-0.370461 -2.120025 2.561626 121 110 20
-0.356524 -2.115792 2.564431 148 137 47
-0.282196 -5.196523 8.223746 150 140 45
-0.420279 -1.899572 2.137636 156 146 51
-0.404673 -4.988962 7.791781 154 143 53
-0.312157 -2.439714 3.205880 148 137 47
-0.377185 -1.766512 1.940904 118 108 11
-0.364441 -1.648383 1.733926 178 167 75
-0.332081 -2.324097 2.997696 149 138 46
-0.315099 -2.433196 3.210657 157 146 56
-0.496136 -1.338020 1.376598 145 134 44
-0.884028 -5.331134 9.306749 154 143 53
-0.554488 -2.088907 2.879922 122 111 21
-0.497156 -1.547804 1.809269 207 196 106
-0.443530 -1.007827 0.737871 201 190 100
-0.592408 -1.571708 1.793743 165 154 62
-0.586922 -1.570041 1.794847 136 125 33
-0.535817 -1.345722 1.371763 196 185 93
-0.733931 -2.971865 4.582159 216 205 113
-0.500105 -1.122407 0.948241 121 110 18
-0.831408 -4.656941 8.040282 116 105 15
-1.015899 -4.698094 8.013936 210 199 107
-1.012391 -4.904463 8.448997 204 193 101
-0.600333 -1.875203 2.450969 117 106 14
-0.469291 -1.005657 0.739926 129 118 28
-0.477545 -1.111882 0.955442 185 174 84
-0.443865 -0.997933 0.745044 127 116 26
-0.517265 -1.223653 1.167531 123 112 20
-0.498300 -1.321269 1.388771 153 142 53
-0.511891 -1.011934 0.736178 145 134 42
-0.524492 -1.118799 0.951312 122 111 19
-1.082933 -5.719046 10.198716 165 154 64
-0.910369 -4.739289 8.274420 157 146 54
-1.286772 -5.865373 10.388854 115 104 12
-0.942035 -5.966044 10.894073 174 163 73
-0.549875 -1.217512 1.172591 170 159 67
-0.899338 -4.588225 8.091331 111 100 10
-0.499019 -0.994696 0.748423 156 147 54
-0.506303 -1.098586 0.965612 154 143 51
-0.502191 -1.300692 1.403749 174 163 71
-0.526818 -1.202484 1.183044 106 97 4
-0.140742 -0.882527 0.822948 107 96 7
0.592882 -4.003797 8.194348 120 109 20
-0.122581 -0.877010 0.826604 145 134 42
-0.024747 -1.151302 1.502999 146 135 43
-0.005769 -1.145537 1.506818 133 122 32
-0.558789 -1.410178 1.617810 178 169 78
0.432967 -3.734832 7.515260 131 120 30
-0.152962 -0.882907 0.822902 167 156 66
-0.047363 -1.355815 1.939894 170 159 69
-0.062641 -1.259459 1.717671 160 149 59
-0.073917 -1.161887 1.496254 153 142 53
0.062084 -1.726556 2.838513 158 147 58
0.224778 -2.384114 4.405292 186 175 86
0.998637 -5.279947 11.354622 134 123 31
-0.102109 -0.867459 0.833137 150 139 47
-0.012241 -1.143151 1.508668 132 121 29
-0.560651 -1.406052 1.620833 146 137 46
-0.535838 -1.297857 1.406434 109 99 4
-0.662422 -2.946827 4.891257 140 129 37
-0.080388 -1.159501 1.498104 133 122 32
-0.106376 -0.966081 1.054086 158 147 57
0.354688 -2.839164 5.534762 123 112 20
-0.028699 -1.244456 1.727902 109 98 6
0.149286 -1.894989 3.299482 142 131 39
-0.103432 -0.864529 0.835285 130 119 27
-0.048904 -1.049279 1.285047 139 128 36
0.140686 -2.291798 4.181434 162 151 61
-0.007472 -1.333633 1.955213 122 111 21
-0.581991 -1.303174 1.403449 121 110 18
-0.550681 -1.193685 1.189865 158 147 55
-0.480204 -0.972321 0.764277 119 109 14
-0.515571 -1.282997 1.416818 157 146 54
-0.026911 -1.134552 1.515172 161 150 61
-0.022167 -1.133110 1.516127 147 136 47
-0.971953 -5.303137 9.913284 176 165 75
0.250891 -2.839280 5.536626 149 138 48
0.182893 -2.461387 4.642409 134 123 33
-0.059860 -1.239846 1.731825 162 151 62
0.670687 -4.405587 9.363375 192 181 92
0.753431 -4.280814 9.159896 100 89 0
-0.547491 -1.283989 1.416698 129 119 24
-0.031773 -1.425216 2.181635 115 104 14
-0.077808 -1.141309 1.511233 135 124 35
-0.100196 -0.949516 1.065969 212 201 112
0.489438 -3.252828 6.694119 116 105 15
-0.572940 -1.287368 1.414728 189 178 86
-0.546711 -1.180443 1.199382 185 174 82
-0.476907 -0.961323 0.772181 177 167 72
-0.485938 -1.063024 0.990989 173 162 70
-1.052029 -3.795367 6.622367 119 108 16
-0.792869 -3.716640 6.674529 114 103 11
0.600908 -4.575263 9.826388 146 135 43
-0.129527 -0.852465 0.844513 137 126 37
0.506315 -3.223357 6.715149 158 147 58
-0.515874 -0.966497 0.769165 117 106 16
-0.144597 -0.951988 1.065011 191 180 88
-0.156276 -0.857258 0.841543 119 108 16
-0.112688 -0.844017 0.850316 113 102 13
-0.026058 -1.112533 1.531105 171 160 70
-0.038480 -1.209892 1.753121 163 152 63
-0.037274 -1.111588 1.532000 112 101 12
0.513491 -3.867842 8.294315 136 125 35
-0.140759 -0.845881 0.849493 143 132 43
0.608674 -3.838927 8.313473 136 124 38
-0.171140 -0.851778 0.845791 92 82 0
-0.144966 -0.941084 1.072916 147 136 47
0.967284 -4.960808 11.294070 150 139 50
-0.032967 -1.097224 1.542324 145 133 47
-0.096369 -1.112132 1.532715 141 130 41
-0.145335 -0.930180 1.080821 110 99 10
-0.122086 -1.019355 1.308095 137 126 37
-0.114931 -1.013170 1.312442 169 158 69
0.194201 -2.635279 5.393151 139 127 41
-0.073085 -1.092003 1.546858 124 113 24
-0.100214 -0.909130 1.095222 175 163 77
-0.122255 -1.102588 1.540114 126 114 28
-0.162235 -0.825749 0.864478 118 107 17
-0.178086 -0.827233 0.863701 160 149 60
1.435185 -3.326082 9.254043 159 147 61
0.083517 -0.761517 1.198695 134 122 38
1.092721 -2.457255 6.674453 110 98 14
0.145588 -0.999141 1.902321 120 108 22
1.480943 -3.195000 9.055827 101 89 5
0.100618 -0.748979 1.207456 156 144 60
0.043119 -0.762774 1.198543 135 123 37
0.654116 -1.953759 5.001260 136 124 38
1.822513 -4.093899 11.905955 132 120 36
1.674569 -3.605687 10.508540 128 116 32
0.015046 -0.678601 0.967736 140 128 44
1.273079 -2.942505 8.365709 133 121 37
1.465335 -3.225530 9.326310 92 80 0
0.051369 -0.667567 0.975047 126 114 30
1.698047 -3.564690 10.537794 151 141 56
1.923904 -3.921165 11.736866 141 131 46
1.715636 -3.881123 11.477474 180 170 83
1.372779 -3.053829 8.867809 137 129 44
1.379026 -2.967254 8.638098 105 97 12
0.562511 -1.767352 4.553393 137 125 41
0.219507 -0.943842 1.940989 128 120 35
1.482365 -3.075432 9.142409 100 93 12
1.029441 -2.863500 8.135203 110 98 14
1.334607 -3.507118 10.294012 158 146 62
0.084200 -0.804236 1.460043 158 147 68
1.824892 -3.691448 11.320509 90 81 2
1.188646 -3.119981 9.115651 122 110 26
1.367227 -3.065732 9.151595 104 95 18
1.201106 -3.183941 9.361392 132 122 37
0.062584 -0.637504 0.996612 113 105 40
1.983262 -3.359523 10.681052 59 53 5
2.278379 -3.683058 11.902684 53 49 2
1.436350 -3.673326 11.048623 104 96 13
0.512782 -1.567273 4.114644 110 102 29
0.402923 -1.189160 2.929068 75 68 13
1.785137 -3.320480 10.420747 59 53 3
1.999223 -3.584633 11.394608 66 59 13
1.794553 -3.235323 10.189949 71 64 18
2.240293 -3.840590 12.373900 53 49 2
2.303452 -3.821403 12.386612 47 42 4
1.947928 -3.271028 10.453512 44 40 3
2.345558 -3.808612 12.395087 44 40 3
2.318798 -3.734444 12.157008 38 34 0
1.659400 -3.669913 11.339213 87 79 16
1.323884 -2.788351 8.476414 66 58 11
1.980349 -3.818286 12.102629 84 77 33
1.200777 -2.497921 7.519880 71 67 22
1.255337 -2.481346 7.530862 46 43 2
1.832816 -3.289404 10.442361 34 30 0
2.162031 -3.681138 11.906258 36 33 0
1.941343 -3.256436 10.464205 32 28 1
2.215912 -3.582813 11.684164 27 26 0
0.016168 -0.723226 1.227695 99 92 14
1.209754 -2.972383 8.929862 86 82 18
0.040456 -0.634231 0.999398 64 58 8
0.214840 -0.907724 1.967238 46 38 1
1.405730 -2.831233 8.736121 39 34 2
1.650342 -3.165010 9.951282 35 32 0
1.206905 -2.401930 7.296991 35 31 2
2.009241 -3.627303 11.655816 29 28 0
2.200327 -3.732489 12.160647 32 27 7
1.623099 -3.726313 11.591345 62 59 6
0.520454 -1.541686 4.133033 53 48 6
1.703862 -3.620502 11.374169 55 50 12
1.346755 -2.916214 8.967977 51 45 9
1.242632 -2.704013 8.246725 47 41 5
1.394346 -2.901756 8.977556 41 35 3
1.441938 -2.887299 8.987135 34 28 2
0.064560 -0.623576 1.006663 32 28 1
1.876177 -3.486879 11.175420 26 26 0
0.100883 -0.612542 1.013974 24 23 3
1.204091 -3.106874 9.417159 67 58 3
1.414365 -3.447682 10.627871 70 63 11
1.542790 -3.570543 11.121075 73 72 26
1.156141 -2.797692 8.472796 61 60 16
1.788573 -3.900564 12.338934 48 46 8
1.691243 -3.363572 10.683599 32 26 0
0.428062 -1.238253 3.185340 34 28 2
1.936730 -3.693683 11.901398 33 29 4
1.024457 -2.109262 6.343191 23 25 1
-0.010731 -0.639784 0.996336 64 56 9
1.109930 -2.878455 8.707467 59 50 7
1.481479 -3.410362 10.653644 34 34 0
1.255884 -2.914714 8.970768 31 30 0
0.893025 -2.218973 6.558493 31 30 0
1.018593 -2.261425 6.817691 33 28 6
2.219104 -3.669869 12.205653 32 33 2
1.746019 -2.927015 9.537268 44 45 14
2.111796 -3.380079 11.248358 56 55 25
1.080162 -2.311487 7.072577 28 26 1
1.482291 -2.911641 9.261049 26 26 0
1.694468 -3.087957 10.006266 68 67 39
1.579699 -2.882051 9.280655 82 81 53
1.063022 -2.075922 6.366616 93 92 62
1.047056 -2.229795 6.840068 85 85 57
1.366464 -2.692184 8.545273 101 100 70
1.457200 -2.664620 8.563536 116 113 80
1.536584 -3.024518 9.762877 117 118 86
1.013478 -2.148926 6.606970 118 117 86
1.234217 -2.400178 7.590051 118 115 82
1.130191 -2.193048 6.865125 113 110 77
2.024893 -3.274065 11.034475 115 112 77
2.137931 -3.398880 11.526553 114 111 76
1.489365 -2.944053 9.529743 114 114 78
1.446189 -2.640221 8.581416 118 114 79
1.311092 -2.364313 7.614587 120 117 82
0.960835 -1.836818 5.664816 115 112 77
1.319053 -2.282657 7.381280 116 113 78
0.111110 -0.589444 1.030513 115 113 75
0.727177 -1.740212 5.154568 121 119 81
1.252276 -2.527462 8.082123 124 122 83
0.084362 -0.594237 1.027543 121 117 80
0.856311 -1.700984 5.180560 118 114 79
1.653466 -2.800073 9.338649 116 113 78
1.514830 -2.526600 8.370124 118 116 78
1.764289 -3.458529 11.490358 121 117 80
1.703062 -3.320014 11.007231 118 114 76
1.468975 -2.841226 9.312303 122 118 80
1.134075 -2.235949 7.126281 118 114 77
1.211467 -2.212438 7.141858 119 116 81
1.633767 -3.167358 10.534499 123 121 82
1.036780 -2.175456 6.879620 121 119 80
0.759678 -1.712115 5.174310 124 122 84
0.727865 -1.643562 4.932259 118 116 78
0.152163 -0.723411 1.517312 117 114 79
1.025490 -2.022452 6.406051 121 118 83
1.005093 -1.950431 6.166298 118 115 80
0.085349 -0.587273 1.032568 119 116 81
2.232533 -3.611201 12.540199 120 117 82
1.415369 -2.905603 9.558982 120 118 80
0.875360 -1.979369 6.147771 121 119 80
0.857693 -1.906859 5.908321 124 122 84
0.743509 -1.630038 4.941761 125 122 89
0.815662 -1.685996 5.192178 122 119 84
0.437675 -1.099928 2.993050 121 118 83
1.799290 -3.022607 10.343938 123 120 85
0.593422 -1.286246 3.732081 120 117 82
1.080850 -1.916945 6.189131 125 122 87
1.173809 -2.498530 8.104551 123 121 83
1.081292 -2.216487 7.141368 124 121 86
1.107089 -2.208650 7.146560 125 122 89
1.288859 -2.463580 8.127708 125 122 89
2.069832 -3.622002 12.535429 123 120 87
1.635311 -2.901094 9.850424 120 117 82
0.210174 -0.775301 1.770941 118 115 80
0.699700 -1.479500 4.467016 120 117 82
0.538093 -1.218445 3.489927 121 118 83
1.268361 -2.237196 7.415160 119 116 81
0.882787 -1.878972 5.928050 125 122 87
2.020062 -3.617809 12.539399 119 116 81
0.992625 -1.922802 6.186544 121 118 83
1.563003 -2.675897 9.137989 123 120 85
0.813049 -1.591369 4.968466 121 118 83
0.784186 -1.821936 5.678910 122 120 82
0.336853 -1.035543 2.749275 124 122 84
1.538072 -2.899489 9.853411 123 121 83
0.869584 -1.795994 5.696098 122 119 84
0.800005 -1.586559 4.972194 123 120 85
0.764654 -1.520441 4.728446 120 117 82
1.114407 -1.952192 6.455274 123 120 85
0.614234 -1.557704 4.704278 125 122 87
0.858736 -1.942531 6.174766 124 121 86
0.442012 -1.227437 3.485217 124 122 84
0.973645 -2.060658 6.671653 122 120 82
1.819393 -3.334076 11.579469 122 119 84
0.907881 -1.851085 5.947778 123 120 87
1.738055 -2.976200 10.378701 124 120 85
2.108068 -3.475934 12.348210 124 120 85
1.684675 -2.839382 9.894198 124 120 85
1.612094 -2.708397 9.405830 122 118 83
