ply
format ascii 1.0
element vertex 1207
property float x
property float y
property float z
property uchar red
property uchar green
property uchar blue
end_header
0.560192 -0.410136 1.180952 197 195 183
0.337346 -1.909145 3.378818 20 17 0
0.659811 -2.935937 5.725553 24 22 1
0.640769 -2.841881 5.529313 52 50 25
1.078969 -4.201996 8.657579 77 76 48
0.465542 -2.228957 4.159268 78 76 53
0.142762 -1.202507 1.812559 85 83 62
1.117256 -4.045784 8.456368 51 49 37
1.156656 -4.117767 8.650843 63 60 51
0.103588 -1.015577 1.420174 112 109 100
0.077196 -0.929491 1.224571 117 114 105
0.079565 -0.926922 1.224365 123 120 111
0.081934 -0.924354 1.224160 128 125 116
0.232704 -1.334393 2.200543 135 132 123
0.236222 -1.330579 2.200238 139 136 127
0.119181 -0.998672 1.418822 142 139 130
0.630456 -0.788446 1.968165 216 213 206
0.397022 -0.582733 1.196840 219 216 209
0.640319 -0.777752 1.967310 218 215 208
0.704069 -0.823334 2.159674 216 213 206
0.828970 -0.917318 2.544627 215 214 209
0.832947 -0.913006 2.544282 213 212 207
0.653471 -0.763492 1.966170 215 214 209
0.783268 -0.852167 2.350698 217 216 211
0.477814 -0.609838 1.387726 216 215 210
0.480413 -0.607020 1.387501 219 218 213
0.420712 -0.557048 1.194786 219 218 213
0.735728 -0.789010 2.156929 220 219 214
0.739246 -0.785196 2.156624 220 219 214
0.679775 -0.734974 1.963889 219 218 213
0.872718 -0.869886 2.540834 219 218 213
0.876695 -0.865574 2.540489 218 217 212
0.477570 -0.495402 1.189856 218 217 213
0.479939 -0.492833 1.189651 218 217 213
0.482308 -0.490265 1.189446 220 219 215
0.484677 -0.487696 1.189240 222 221 217
1.792947 -1.248577 4.835740 224 223 219
0.976122 -0.757774 2.531868 224 223 219
0.980099 -0.753462 2.531523 222 221 217
0.918173 -0.705902 2.339001 221 220 216
1.277366 -0.889967 3.297314 220 219 215
1.211692 -0.846470 3.105117 221 220 216
0.652795 -0.534824 1.570446 220 219 215
0.736056 -0.559252 1.761118 218 217 212
0.974383 -0.644958 2.334128 101 100 96
0.610353 -0.466139 1.376235 129 128 123
1.129449 -0.706237 2.716465 166 166 158
1.133656 -0.701676 2.716101 192 192 182
0.543904 -0.423482 1.184105 193 193 181
0.546273 -0.420913 1.183900 196 196 184
0.847459 -0.553169 1.949350 195 195 183
1.530507 -0.844910 3.671148 199 197 185
1.460470 -0.806145 3.479329 199 197 184
1.465595 -0.800587 3.478885 198 196 183
0.411162 -2.163048 3.970196 19 16 1
0.364221 -1.985376 3.578145 19 16 0
0.634274 -2.835409 5.535331 39 37 14
1.176148 -4.533560 9.449548 72 71 43
0.352645 -1.883644 3.381089 82 80 57
1.254546 -4.677125 9.838871 84 82 61
0.143144 -1.196525 1.814774 102 101 83
1.248250 -4.455386 9.443297 91 89 77
0.101315 -1.013311 1.422280 100 97 88
0.103913 -1.010494 1.422055 114 111 102
0.077492 -0.924857 1.226286 119 116 107
0.255358 -1.417710 2.399224 122 119 110
0.082231 -0.919720 1.225875 131 128 119
0.144017 -1.081295 1.616638 135 132 123
0.146846 -1.078229 1.616393 137 134 125
0.119506 -0.993588 1.420703 143 140 133
0.444355 -0.641384 1.392537 203 203 195
0.387841 -0.588374 1.199377 214 211 204
0.568237 -0.735636 1.777916 215 212 205
0.571295 -0.732320 1.777651 216 211 205
0.574353 -0.729004 1.777386 220 217 210
0.577411 -0.725689 1.777121 220 217 210
0.580469 -0.722373 1.776856 215 215 207
0.644018 -0.767755 1.969406 217 216 211
0.586586 -0.715741 1.776325 215 214 209
0.589644 -0.712426 1.776060 217 216 211
0.592702 -0.709110 1.775795 220 219 214
0.779989 -0.848900 2.353736 219 218 213
0.783736 -0.844837 2.353411 218 217 212
0.478139 -0.604755 1.389608 219 218 213
0.480738 -0.601937 1.389383 220 219 214
0.545665 -0.645825 1.581813 220 219 214
0.865261 -0.870730 2.544403 220 219 214
0.869238 -0.866418 2.544058 220 219 214
0.499188 -0.467651 1.189723 218 217 213
0.503926 -0.462513 1.189312 220 219 215
0.508664 -0.457376 1.188901 220 219 215
0.511033 -0.454808 1.188696 218 217 213
0.733380 -0.556585 1.763597 218 217 212
0.608079 -0.463873 1.378342 109 108 103
1.125768 -0.702569 2.719876 126 125 120
1.203789 -0.732261 2.911171 171 171 163
1.208225 -0.727451 2.910786 192 192 182
1.531177 -0.834434 3.675025 200 198 185
1.461110 -0.796119 3.483040 200 198 186
0.411860 -2.152123 3.974239 20 17 0
0.364861 -1.975350 3.581856 25 23 2
0.369987 -1.969793 3.581412 62 61 33
0.401864 -2.049096 3.776877 82 80 57
0.164391 -1.281786 2.013408 85 82 63
0.167679 -1.278221 2.013122 149 147 132
1.377234 -4.862985 10.432088 157 155 143
0.099041 -1.011046 1.424387 86 83 74
0.101639 -1.008228 1.424162 113 110 101
0.104238 -1.005410 1.423937 121 118 109
0.310176 -1.579183 2.793683 124 121 112
0.080158 -0.917654 1.227796 129 126 117
0.289081 -1.488189 2.597283 131 128 119
0.144371 -1.075763 1.618686 136 133 124
0.416905 -1.805060 3.379115 144 141 134
0.915362 -0.695305 2.344753 220 219 215
0.919110 -0.691242 2.344428 219 218 214
0.506591 -0.455311 1.190822 220 219 215
0.508961 -0.452742 1.190617 219 218 214
0.511330 -0.450174 1.190411 218 217 213
0.749054 -0.534024 1.764486 86 85 81
0.752112 -0.530709 1.764221 87 86 82
1.195470 -0.733203 2.915152 103 102 98
0.537389 -0.421919 1.188152 125 124 119
1.204343 -0.723583 2.914383 175 175 167
1.282852 -0.752327 3.105805 197 197 187
1.287518 -0.747268 3.105400 197 197 187
0.770461 -0.510814 1.762630 203 201 189
1.607067 -0.856268 3.870609 201 199 187
0.510417 -2.488883 4.763388 19 16 1
1.143101 -4.525634 9.470075 22 20 0
0.444464 -2.220052 4.173914 48 46 21
0.450278 -2.213748 4.173410 81 79 56
0.268634 -1.616564 2.800376 89 86 67
0.191811 -1.359517 2.211844 186 184 169
0.358765 -1.859182 3.387754 235 233 220
0.127753 -1.088630 1.622205 103 100 91
0.101964 -1.003145 1.426043 118 115 106
0.306495 -1.575515 2.797093 119 116 107
0.339779 -1.652875 2.992605 124 121 112
0.285602 -1.484721 2.600507 129 126 117
0.141896 -1.073297 1.620979 134 131 122
0.174491 -1.151403 1.816550 143 140 133
0.981590 -0.730124 2.540162 222 221 217
0.915831 -0.687975 2.347466 221 220 216
0.572345 -0.493153 1.385259 220 219 215
0.504519 -0.453245 1.192743 220 219 215
0.506888 -0.450677 1.192537 219 218 214
0.509257 -0.448108 1.192332 219 218 214
0.799373 -0.587346 1.960768 217 216 211
0.874235 -0.619626 2.152675 218 217 212
0.819101 -0.565957 1.959057 185 184 180
0.749436 -0.528042 1.766700 80 79 77
0.608729 -0.453706 1.382105 96 95 90
1.200461 -0.719715 2.917980 129 128 123
1.278769 -0.748259 3.109588 185 185 177
0.987031 -0.610779 2.341292 204 201 192
2.336616 -1.189580 5.795435 201 198 189
2.269708 -1.148676 5.602838 202 199 190
1.752220 -0.915616 4.258923 202 199 190
1.236145 -4.854989 10.265104 19 18 0
0.465495 -2.299691 4.374930 37 36 15
0.471540 -2.293138 4.374406 73 72 51
0.291532 -1.697108 3.000048 88 85 66
0.483629 -2.280031 4.373358 183 182 164
0.597827 -2.608329 5.157722 237 235 220
0.125278 -1.086164 1.624498 92 90 78
0.128107 -1.083097 1.624253 112 109 100
0.388753 -1.817756 3.388752 119 116 107
0.076012 -0.913523 1.231637 123 120 111
0.078381 -0.910955 1.231431 129 126 117
0.168757 -1.152053 1.819295 134 131 122
0.112684 -0.986791 1.427024 138 135 126
0.492969 -0.461454 1.195485 224 224 216
0.495338 -0.458885 1.195279 221 220 215
0.986065 -0.718032 2.542696 222 221 216
0.640067 -0.528026 1.579864 220 219 214
0.507184 -0.446043 1.194252 218 217 212
0.871157 -0.616559 2.155526 219 216 209
0.874675 -0.612746 2.155221 221 218 211
0.878193 -0.608932 2.154916 222 219 212
2.783805 -1.481581 7.152419 186 185 181
3.523108 -1.810302 9.073982 80 79 75
1.270020 -0.749250 3.113775 100 99 94
1.053675 -0.644729 2.536834 134 134 126
0.983752 -0.607512 2.344330 184 184 176
1.358149 -0.766728 3.304701 203 203 193
0.991247 -0.599386 2.343681 201 201 191
2.263012 -1.142004 5.609042 202 202 190
0.608295 -2.809522 5.559402 16 17 0
0.486125 -2.378930 4.576318 23 24 6
0.204768 -1.445270 2.414625 62 61 41
0.340406 -1.861261 3.396541 89 88 68
0.238871 -1.520906 2.610404 187 186 168
0.672246 -2.852795 5.752592 239 237 222
0.153848 -1.162649 1.822835 110 107 98
0.071570 -0.914026 1.233763 113 110 101
0.418040 -1.889699 3.588545 118 115 106
0.076308 -0.908889 1.233352 126 123 114
0.195215 -1.230408 2.017983 129 126 117
0.198503 -1.226844 2.017698 134 131 124
0.490896 -0.459388 1.197405 230 227 218
0.493265 -0.456820 1.197200 224 221 214
0.565199 -0.491439 1.389698 226 223 216
0.986562 -0.710253 2.545576 223 220 215
0.990539 -0.705941 2.545231 221 218 213
0.854009 -0.628748 2.159598 221 218 213
0.505111 -0.443977 1.196173 220 217 212
0.507480 -0.441408 1.195968 218 215 210
0.509849 -0.438840 1.195762 217 214 207
0.868080 -0.613492 2.158378 215 212 205
0.871597 -0.609679 2.158073 217 214 207
0.875115 -0.605865 2.157768 221 218 211
0.593785 -0.460445 1.387220 223 220 215
3.305552 -1.686890 8.505301 95 94 89
1.046218 -0.645573 2.540403 87 86 81
0.609378 -0.443539 1.385868 103 103 95
1.054172 -0.636949 2.539714 134 134 126
1.058149 -0.632637 2.539369 182 182 174
1.062126 -0.628325 2.539024 204 204 196
0.557788 -2.626385 5.171427 18 19 3
0.564751 -2.618836 5.170824 47 46 26
0.362299 -1.940803 3.597145 87 86 65
0.393831 -2.018807 3.793315 184 183 165
0.798732 -3.262685 6.741769 239 237 224
0.123157 -1.078165 1.628839 98 95 86
0.097741 -0.993530 1.432139 111 108 99
0.071866 -0.909392 1.235478 116 113 104
0.074235 -0.906824 1.235273 123 120 111
0.076604 -0.904255 1.235067 126 123 114
0.224789 -1.304550 2.216739 128 125 118
0.557727 -0.494808 1.392256 237 234 225
0.560326 -0.491991 1.392031 233 230 223
0.562925 -0.489173 1.391805 232 229 222
0.565524 -0.486355 1.391580 227 224 217
0.987059 -0.702473 2.548455 223 220 213
0.920983 -0.661921 2.355280 223 220 213
0.854449 -0.621867 2.162145 222 219 212
0.857966 -0.618053 2.161840 220 217 210
0.507776 -0.436774 1.197683 217 214 207
0.868519 -0.606612 2.160925 216 213 206
0.872037 -0.602798 2.160620 219 216 209
0.803894 -0.564487 1.967624 218 215 208
0.879072 -0.595170 2.160010 220 217 212
1.111570 -0.679669 2.736563 182 181 176
1.042738 -0.642106 2.543627 92 91 86
1.046715 -0.637794 2.543283 96 95 90
0.609703 -0.438456 1.387749 102 101 96
1.275853 -0.725935 3.120127 136 135 130
1.280519 -0.720876 3.119723 191 190 185
1.581935 -0.842846 3.889205 197 197 187
0.545681 -0.395677 1.194396 199 199 189
0.704794 -3.124964 6.358235 15 16 0
0.661643 -2.948201 5.963831 33 34 16
0.435742 -2.187164 4.191762 75 74 53
0.441556 -2.180860 4.191258 162 161 143
0.949643 -3.753683 7.929589 238 236 223
0.319814 -1.642213 3.007376 108 105 96
0.578709 -2.367478 4.776585 116 113 104
0.100665 -0.985628 1.433795 121 118 109
0.160729 -1.144054 1.826733 123 120 113
0.076900 -0.899621 1.236783 128 125 118
0.486750 -0.455257 1.201247 236 233 224
0.489120 -0.452689 1.201041 234 231 222
0.560651 -0.486907 1.393912 233 230 223
0.702034 -0.557166 1.779799 230 227 220
0.983579 -0.699006 2.551679 227 224 217
0.568447 -0.478454 1.393236 226 223 216
0.571046 -0.475637 1.393011 224 221 214
0.573645 -0.472819 1.392785 220 217 210
0.576244 -0.470002 1.392560 218 215 208
0.508072 -0.432140 1.199398 215 212 205
0.865441 -0.603545 2.163777 215 212 205
2.364783 -1.325188 6.214307 215 212 205
0.872477 -0.595917 2.163167 214 211 204
0.875994 -0.592103 2.162862 219 216 211
0.597034 -0.447460 1.390757 220 219 214
1.107889 -0.676001 2.739974 223 222 217
1.112096 -0.671440 2.739609 193 192 187
0.897100 -0.569220 2.161032 96 95 90
0.754023 -0.500798 1.775291 97 96 91
0.610028 -0.433372 1.389631 100 99 94
1.055166 -0.621390 2.545472 143 142 138
0.615226 -0.427737 1.389180 189 190 182
1.879497 -0.957152 4.663801 204 204 196
0.950650 -3.956771 8.335465 13 14 0
0.654746 -2.941329 5.970221 27 28 10
0.482204 -2.348914 4.590490 57 59 37
0.150417 -1.261021 2.029116 132 130 115
0.783330 -3.247338 6.756039 230 228 216
1.083236 -4.147085 8.921694 244 241 232
0.343775 -1.719513 3.207801 95 92 83
0.657234 -2.604565 5.372281 113 110 101
0.551220 -2.274086 4.584506 114 111 102
0.072458 -0.900124 1.238909 122 119 110
0.074827 -0.897555 1.238703 129 126 119
3.430258 -2.047844 9.515163 229 226 217
2.617726 -1.592535 7.194714 229 226 217
3.040984 -1.801766 8.353465 230 227 220
0.699358 -0.554499 1.782279 230 227 220
0.494154 -0.442918 1.202346 227 224 217
0.566173 -0.476189 1.395343 225 222 215
0.498892 -0.437780 1.201935 222 219 212
0.571371 -0.470553 1.394892 219 216 209
0.855328 -0.608106 2.167238 217 214 207
0.858846 -0.604292 2.166933 218 215 208
0.862363 -0.600478 2.166629 214 211 204
0.869399 -0.592850 2.166019 214 211 204
0.872916 -0.589036 2.165714 218 215 210
0.876434 -0.585222 2.165409 221 218 213
0.879952 -0.581408 2.165104 219 219 211
0.597359 -0.442377 1.392639 218 217 212
1.108415 -0.667772 2.743020 218 217 212
1.112622 -0.663211 2.742655 200 199 194
1.116828 -0.658650 2.742290 95 94 90
0.610353 -0.428289 1.391512 102 101 97
2.088658 -1.052603 5.248170 148 147 142
0.615550 -0.422654 1.391062 193 193 185
1.041799 -4.282326 9.133021 13 14 0
0.774570 -3.351750 6.962676 21 22 4
0.553435 -2.593073 5.187156 36 38 17
0.173344 -1.341115 2.228955 97 95 80
1.166130 -4.480336 9.720473 204 202 190
0.968272 -3.807359 8.142344 241 238 231
0.706682 -2.759732 5.772100 109 106 97
0.124218 -1.061567 1.634983 107 104 95
0.098716 -0.978279 1.437783 119 116 107
0.072754 -0.895490 1.240624 126 123 114
0.892410 -0.672434 2.366019 228 225 216
0.487343 -0.445989 1.204677 229 226 219
0.489712 -0.443421 1.204472 230 227 220
0.699740 -0.548517 1.784493 227 224 217
0.633349 -0.509562 1.590839 226 223 216
0.636177 -0.506495 1.590593 223 220 213
0.639006 -0.503429 1.590348 219 216 209
0.855768 -0.601225 2.169785 220 217 210
0.859285 -0.597411 2.169480 216 213 206
0.862803 -0.593597 2.169175 212 209 202
0.582091 -0.454199 1.395872 212 209 202
0.869838 -0.585969 2.168565 211 208 201
0.873356 -0.582155 2.168260 214 211 206
0.876874 -0.578342 2.167955 217 217 209
0.880391 -0.574528 2.167650 222 222 214
0.963610 -0.595239 2.359845 224 223 218
0.309194 -1.850534 3.417236 14 15 0
0.288947 -1.761968 3.219412 20 21 5
0.268240 -1.673899 3.021629 25 26 8
0.195868 -1.420808 2.429166 86 84 71
1.155414 -4.469659 9.730401 151 148 139
1.193723 -4.538643 9.926659 231 228 221
0.969573 -3.786998 8.149880 244 241 234
1.032028 -3.719284 8.144465 97 95 83
0.065943 -0.898561 1.242955 107 105 93
0.068312 -0.895993 1.242750 115 112 103
0.099041 -0.973196 1.439665 127 124 115
0.756219 -0.592233 1.981422 228 225 216
0.896626 -0.661041 2.368407 228 225 218
0.900373 -0.656978 2.368082 231 228 221
0.700122 -0.542535 1.786707 228 225 218
0.494746 -0.433649 1.205776 226 223 216
0.497115 -0.431081 1.205571 222 219 212
0.499484 -0.428512 1.205365 220 217 210
0.501853 -0.425944 1.205160 224 221 214
0.856208 -0.594344 2.172332 222 219 212
0.859725 -0.590530 2.172027 215 212 205
0.863243 -0.586716 2.171722 211 208 201
0.866760 -0.582902 2.171417 210 207 200
0.870278 -0.579088 2.171112 211 208 203
0.873796 -0.575275 2.170807 214 211 204
0.877313 -0.571461 2.170502 218 215 208
0.880831 -0.567647 2.170197 221 218 211
0.033072 -0.929887 1.247546 15 16 0
0.933362 -3.917409 8.360417 16 17 1
0.289530 -1.752840 3.222791 18 19 3
0.217991 -1.500101 2.629749 77 75 62
0.221968 -1.495789 2.629405 116 113 104
1.156945 -4.445703 9.739268 224 221 214
1.195283 -4.514238 9.935692 239 236 231
0.281254 -1.541612 2.824012 81 79 67
0.063870 -0.896496 1.244876 107 105 93
0.094168 -0.973748 1.441997 114 112 100
0.206557 -1.505258 2.633663 17 15 0
0.335389 -1.913989 3.622077 22 20 7
0.970531 -3.967424 8.564929 58 54 42
1.108552 -4.366193 9.552546 102 100 88
0.325106 -1.815456 3.423052 187 184 177
0.045214 -0.912410 1.248234 239 236 229
0.061797 -0.894430 1.246797 104 102 89
0.064166 -0.891862 1.246591 105 103 90
0.892263 -0.542444 2.174376 227 224 217
0.603856 -0.416408 1.399714 210 207 200
0.606455 -0.413590 1.399489 112 109 102
1.049698 -0.591117 2.560559 102 99 92
0.611652 -0.407955 1.399038 109 106 99
0.614251 -0.405137 1.398813 167 164 157
0.616850 -0.402320 1.398588 199 199 191
0.619449 -0.399502 1.398363 204 204 196
1.232071 -0.612751 2.944580 202 202 190
0.783459 -0.441046 1.783976 202 200 188
0.710779 -0.410163 1.590361 201 199 187
0.637640 -0.379779 1.396785 200 198 186
2.277497 -0.905163 5.452856 204 202 190
0.017081 -0.938599 1.252415 32 33 2
0.227617 -1.584448 2.834845 17 15 0
0.380444 -2.074337 4.022109 19 17 4
0.386029 -2.068282 4.021624 50 48 35
0.870972 -3.618523 7.781205 100 98 86
0.269904 -1.647865 3.031265 136 133 126
0.428473 -2.131528 4.218030 231 228 221
0.356532 -1.881734 3.624011 245 242 235
1.124300 -3.999448 8.959755 77 75 63
0.309832 -1.604574 3.027803 101 99 86
0.601582 -0.414142 1.401821 219 216 209
0.604181 -0.411325 1.401596 208 205 198
0.826499 -0.498078 1.982577 112 109 102
0.611977 -0.402872 1.400920 116 113 106
0.614576 -0.400054 1.400695 169 169 161
0.617175 -0.397236 1.400469 201 201 193
0.619773 -0.394419 1.400244 204 205 197
0.627570 -0.385966 1.399568 199 199 187
0.713961 -0.401564 1.592163 201 199 187
0.573814 -0.334984 1.204143 204 202 190
0.015008 -0.936534 1.254335 35 36 4
0.424695 -2.233884 4.422885 20 18 5
0.405941 -2.145371 4.224257 41 39 26
0.461812 -2.302487 4.619921 96 94 82
0.468087 -2.295685 4.619377 103 100 91
0.448873 -2.207670 4.420789 203 200 193
0.043437 -0.905711 1.251870 240 237 230
1.249867 -4.386914 9.958464 67 65 53
0.141997 -1.125389 1.844088 93 91 78
0.370370 -0.551247 1.223524 212 211 207
0.372739 -0.548679 1.223318 218 217 213
1.301149 -1.283625 4.346892 221 220 218
1.249086 -1.231225 4.151152 227 226 224
1.313238 -1.270517 4.345844 238 237 235
1.904950 -1.717439 6.297085 244 243 241
0.443380 -0.580934 1.417448 249 248 246
0.977215 -0.981761 3.173452 250 249 247
2.998558 -2.382121 9.606590 230 229 224
1.527471 -1.255936 4.727778 222 221 216
0.813758 -0.505906 1.986098 221 218 211
0.601907 -0.409059 1.403703 215 212 205
0.604506 -0.406241 1.403478 213 210 203
0.607104 -0.403423 1.403252 120 117 112
0.609703 -0.400606 1.403027 104 101 96
0.612302 -0.397788 1.402802 113 112 107
0.614901 -0.394971 1.402576 171 170 165
0.617499 -0.392153 1.402351 201 200 195
0.620098 -0.389335 1.402126 205 205 195
0.921284 -0.498171 2.177029 207 207 197
0.924802 -0.494357 2.176724 201 198 189
0.711486 -0.399098 1.594456 204 202 190
1.018415 -0.501707 2.368862 201 199 187
3.957272 -1.451520 9.723720 201 199 187
0.012935 -0.934468 1.256256 36 37 5
0.321934 -1.900583 3.634543 14 15 1
0.376255 -2.058543 4.030680 36 37 23
0.853561 -3.601173 7.797338 87 85 73
0.688111 -3.021561 6.408720 98 96 84
0.342437 -1.878353 3.632766 157 154 145
0.066881 -0.984408 1.452002 239 236 229
0.172464 -1.303644 2.244540 240 237 230
0.627563 -2.545068 5.411854 77 75 62
0.940468 -1.013107 3.180067 210 209 205
1.634497 -1.561769 5.524971 232 231 227
1.468890 -1.416038 4.938060 234 233 231
1.475623 -1.408737 4.937476 235 234 232
0.377773 -0.538908 1.224623 247 246 244
1.605822 -1.484430 5.327034 248 247 245
0.505359 -0.617433 1.614407 235 234 230
0.567472 -0.658518 1.809445 235 234 230
0.391987 -0.523496 1.223390 232 231 227
0.394356 -0.520928 1.223185 225 224 220
1.116410 -1.039204 3.565659 234 233 229
0.399095 -0.515790 1.222774 231 230 225
0.403833 -0.510653 1.222363 233 232 227
0.406202 -0.508085 1.222158 229 228 223
0.408571 -0.505516 1.221952 230 229 224
0.410940 -0.502948 1.221747 227 226 221
0.413309 -0.500379 1.221542 221 220 215
0.810881 -0.503039 1.988763 218 215 208
0.814169 -0.499474 1.988478 221 218 209
0.599633 -0.406793 1.405810 224 221 214
0.602232 -0.403975 1.405584 221 218 211
0.604830 -0.401158 1.405359 211 208 203
0.607429 -0.398340 1.405134 110 107 102
0.610028 -0.395522 1.404908 100 99 94
0.612627 -0.392705 1.404683 124 123 118
0.615226 -0.389887 1.404458 174 173 168
0.617824 -0.387069 1.404232 201 201 193
0.620423 -0.384252 1.404007 207 207 197
0.921724 -0.491290 2.179576 202 202 192
0.850336 -0.460261 1.985342 207 204 195
0.853624 -0.456697 1.985057 205 202 193
1.011389 -0.502503 2.372225 205 203 191
1.015136 -0.498440 2.371900 204 202 190
4.137087 -1.559133 10.318567 202 200 188
1.026378 -0.486251 2.370925 206 204 192
0.033421 -1.015954 1.456813 37 37 3
0.013231 -0.929834 1.257971 34 34 6
0.583286 -2.795997 5.822163 17 18 4
0.908095 -3.847961 8.401697 32 33 19
0.647844 -2.942022 6.217749 87 88 74
0.631099 -2.852167 6.018609 90 88 75
0.363038 -1.954696 3.835338 118 116 104
0.570917 -2.593388 5.422051 217 214 207
0.194932 -1.380891 2.445769 239 236 231
2.589853 -2.348612 8.857657 221 220 216
1.685248 -1.601240 5.726617 247 246 242
1.577949 -1.501555 5.334737 247 246 244
1.585142 -1.493756 5.334113 242 241 239
1.076046 -1.073636 3.572925 239 238 236
0.397022 -0.513725 1.224695 233 232 228
0.399391 -0.511156 1.224489 228 227 222
0.401760 -0.508588 1.224284 231 230 225
1.577470 -1.286055 4.933594 226 225 220
0.808004 -0.500172 1.991429 215 212 205
0.811292 -0.496608 1.991144 217 214 205
0.814580 -0.493043 1.990859 218 215 208
0.599958 -0.401709 1.407691 224 221 214
0.602556 -0.398892 1.407466 227 224 219
0.605155 -0.396074 1.407241 220 217 212
0.607754 -0.393257 1.407015 123 120 115
0.978131 -0.531739 2.377862 102 101 96
0.612952 -0.387621 1.406565 121 120 115
0.615550 -0.384804 1.406339 182 183 175
0.618149 -0.381986 1.406114 199 199 191
3.599726 -1.469718 9.171281 205 205 195
0.939752 -0.465340 2.180598 201 199 187
1.780176 -0.742250 4.314242 204 202 190
0.420966 -0.591043 1.425120 248 247 243
0.839706 -0.890181 2.794140 230 229 227
0.383103 -0.524502 1.227642 228 227 225
1.563124 -1.396941 5.140547 228 227 223
1.232169 -1.110217 3.964677 226 225 221
0.517380 -0.594101 1.617522 225 224 220
0.520209 -0.591034 1.617276 227 226 222
0.523037 -0.587968 1.617031 228 227 222
0.409163 -0.496248 1.225383 232 231 226
0.589887 -0.407897 1.410474 213 210 203
0.808415 -0.493741 1.993809 212 209 200
0.811703 -0.490176 1.993524 216 213 206
3.350242 -1.503569 8.800053 225 222 215
0.745613 -0.454240 1.798494 217 214 209
0.602881 -0.393808 1.409347 220 217 212
0.605480 -0.390991 1.409122 217 214 209
0.608079 -0.388173 1.408897 115 114 109
0.610678 -0.385355 1.408671 100 99 94
0.613276 -0.382538 1.408446 130 131 123
0.615875 -0.379720 1.408221 178 179 171
0.618474 -0.376903 1.407996 204 204 196
0.770079 -0.427714 1.796372 205 205 195
0.626270 -0.368450 1.407320 204 201 192
0.936674 -0.462273 2.183450 205 203 191
0.639264 -0.354362 1.406193 204 202 190
0.641863 -0.351544 1.405968 203 201 189
3.022943 -2.695192 10.444193 247 246 242
1.464681 -1.383824 4.953270 238 237 235
1.124839 -1.109245 3.777157 232 231 229
0.378661 -0.525005 1.229768 233 232 230
0.381030 -0.522437 1.229563 223 222 220
0.383400 -0.519868 1.229358 223 222 218
0.444680 -0.560601 1.424974 225 224 222
1.882887 -1.573441 6.122587 233 232 230
0.514905 -0.591635 1.619815 221 220 216
0.517734 -0.588568 1.619570 222 221 217
0.520562 -0.585501 1.619324 226 225 221
1.741199 -1.405540 5.532083 231 230 226
0.468069 -0.535242 1.422946 227 226 221
0.518437 -0.373459 1.217649 212 209 202
0.808826 -0.487310 1.996190 215 212 205
3.195861 -1.435981 8.419903 219 214 208
0.815402 -0.480180 1.995620 217 214 207
0.818690 -0.476615 1.995335 226 223 216
0.603206 -0.388725 1.411229 218 215 208
0.605805 -0.385907 1.411004 214 214 206
0.608404 -0.383090 1.410778 122 122 114
0.611003 -0.380272 1.410553 101 102 94
0.613601 -0.377454 1.410328 143 144 136
0.616200 -0.374637 1.410102 175 176 168
0.618799 -0.371819 1.409877 204 204 196
0.621398 -0.369002 1.409652 205 205 195
0.926561 -0.466834 2.186911 200 200 188
0.704415 -0.386166 1.603383 203 203 191
0.707244 -0.383100 1.603138 204 202 190
1.920960 -0.781949 4.712779 199 197 185
0.788811 -0.401837 1.796996 201 199 187
0.791869 -0.398521 1.796730 203 201 189
0.642188 -0.346460 1.407849 205 203 191
0.644787 -0.343643 1.407624 199 197 185
0.954702 -0.436323 2.184471 197 195 183
0.881161 -0.408884 1.989918 202 200 188
0.884449 -0.405319 1.989633 204 202 190
0.813277 -0.375311 1.794874 203 201 189
0.816335 -0.371995 1.794609 201 199 187
0.367112 -0.533214 1.232511 243 242 240
1.458789 -1.377953 4.958729 231 230 228
1.420969 -1.312203 4.760909 228 227 225
0.912088 -0.903141 2.995145 222 221 219
1.446985 -1.283996 4.758654 230 229 227
0.512430 -0.589169 1.622108 223 222 220
0.455400 -0.544247 1.425954 221 220 216
0.457999 -0.541429 1.425729 225 224 220
0.644840 -0.659119 2.012824 228 227 223
2.410682 -1.840472 7.691574 222 221 216
3.390894 -1.525002 9.014275 215 210 204
0.812525 -0.477313 1.998285 216 211 205
0.743320 -0.445591 1.803187 220 217 210
0.819101 -0.470184 1.997715 227 224 217
0.603531 -0.383641 1.413111 218 218 210
0.606130 -0.380824 1.412885 222 222 212
0.608729 -0.378006 1.412660 119 120 112
0.611327 -0.375189 1.412435 101 104 95
0.613926 -0.372371 1.412209 138 139 131
0.616525 -0.369553 1.411984 188 189 181
0.619124 -0.366736 1.411759 206 206 196
0.621723 -0.363918 1.411533 200 200 190
0.934036 -0.452325 2.188848 202 200 188
1.013262 -0.473182 2.383077 200 198 186
2.535788 -0.957546 6.273037 201 199 187
0.792251 -0.392539 1.798945 204 202 190
0.642513 -0.341377 1.409731 201 199 187
0.645112 -0.338559 1.409505 200 198 186
1.039494 -0.444741 2.380803 203 201 189
0.810601 -0.372645 1.797354 204 202 190
0.695205 -0.811201 2.413408 246 245 241
0.811836 -0.897422 2.805830 250 249 247
0.365039 -0.531149 1.234431 231 230 228
0.367408 -0.528580 1.234226 227 226 224
1.466365 -1.357480 4.963020 227 226 224
0.605796 -0.695465 2.018626 227 226 224
1.025225 -0.985074 3.391130 225 223 224
1.911206 -1.619537 6.333321 233 231 232
0.445330 -0.550434 1.428737 230 229 227
1.987088 -1.643602 6.528009 230 229 227
0.453126 -0.541981 1.428061 225 224 220
0.455725 -0.539163 1.427836 224 223 219
0.398206 -0.495188 1.231556 224 223 218
1.547169 -1.269872 4.956014 225 224 220
2.646230 -1.247964 7.074661 212 209 202
2.441370 -1.151065 6.488621 213 210 203
3.764209 -1.630893 9.996736 215 212 205
0.812936 -0.470882 2.000666 213 210 203
0.816224 -0.467317 2.000381 214 211 204
0.746760 -0.436293 1.805136 216 216 208
0.603856 -0.378558 1.414992 221 221 213
0.606455 -0.375740 1.414767 214 215 207
0.609053 -0.372923 1.414541 116 117 111
0.611652 -0.370105 1.414316 108 109 103
0.614251 -0.367288 1.414091 133 134 128
0.616850 -0.364470 1.413865 196 196 188
0.619449 -0.361652 1.413640 208 208 198
1.085492 -0.494385 2.580836 197 195 183
2.907178 -1.071379 7.253303 198 196 184
0.789575 -0.389873 1.801424 200 198 186
0.792634 -0.386557 1.801159 203 201 189
0.795692 -0.383241 1.800894 205 203 191
3.723494 -1.249690 9.195197 202 199 190
1.036215 -0.441474 2.383841 203 200 191
0.807925 -0.369978 1.799833 202 199 190
0.355859 -0.536789 1.236968 241 240 236
0.864396 -0.938696 3.005801 251 250 248
2.167656 -1.961817 7.525832 230 229 227
0.367704 -0.523946 1.235941 227 226 224
2.158636 -1.865677 7.325178 229 228 226
1.705336 -1.509801 5.752993 232 231 229
0.846016 -0.852705 2.805958 228 227 225
1.845369 -1.569813 6.143723 234 233 231
0.443056 -0.548168 1.430844 229 228 226
1.810478 -1.501724 5.945312 229 228 224
0.453451 -0.536897 1.429943 216 215 211
0.456050 -0.534080 1.429717 223 222 218
3.238531 -2.389543 10.454524 226 225 220
0.580792 -0.398833 1.418902 215 212 205
1.437458 -0.741051 3.761858 212 209 202
0.875115 -0.503400 2.199127 211 208 201
1.309801 -0.667620 3.370054 212 209 202
0.813347 -0.464450 2.003046 213 210 203
0.816635 -0.460886 2.002761 217 214 207
0.747143 -0.430311 1.807350 220 220 212
0.604181 -0.373475 1.416874 220 221 213
0.606780 -0.370657 1.416648 221 222 214
0.609378 -0.367839 1.416423 129 130 122
0.611977 -0.365022 1.416198 106 106 98
0.614576 -0.362204 1.415972 143 143 135
0.617175 -0.359386 1.415747 189 189 179
0.619773 -0.356569 1.415522 201 201 189
0.624971 -0.350934 1.415071 198 199 185
0.852802 -0.421673 1.999625 201 199 186
1.006705 -0.466648 2.389153 200 198 186
0.882394 -0.389589 1.997060 201 199 187
0.885682 -0.386025 1.996775 202 200 188
0.353786 -0.534723 1.238889 252 251 247
2.255219 -1.954685 7.726988 221 220 216
1.001969 -0.992461 3.400342 228 227 223
1.481515 -1.316536 4.971603 232 231 227
0.440782 -0.545902 1.432951 230 229 225
2.971627 -2.338452 9.882526 226 225 221
0.451177 -0.534632 1.432049 228 227 223
2.663242 -2.039805 8.699635 232 231 227
2.794230 -2.108787 9.091487 222 221 219
0.578518 -0.396568 1.421008 220 217 210
2.071514 -0.993355 5.525262 216 213 206
0.583715 -0.390932 1.420558 211 208 201
1.878801 -0.885795 4.937156 210 207 200
3.898460 -1.650074 10.406980 213 210 203
0.666230 -0.406969 1.615008 213 210 203
0.813758 -0.458019 2.005427 213 210 203
0.817046 -0.454454 2.005142 213 213 205
0.747525 -0.424329 1.809565 214 214 206
0.604506 -0.368391 1.418755 220 220 212
0.607104 -0.365574 1.418530 210 210 202
0.830198 -0.440195 2.004001 123 123 113
0.614901 -0.357121 1.417854 162 159 150
0.617500 -0.354303 1.417628 202 200 188
0.849925 -0.418806 2.002291 204 202 189
1.322515 -0.539422 3.170945 203 201 189
0.409921 -0.574630 1.437536 248 247 243
0.356451 -0.527521 1.240399 236 235 231
2.961478 -2.536907 10.296122 234 233 229
2.690625 -2.305157 9.310737 223 222 218
0.883251 -0.902099 3.010686 225 224 220
1.347262 -1.239671 4.584644 226 225 221
2.749562 -2.241257 9.305627 232 231 226
0.552181 -0.630555 1.828749 233 232 227
2.843520 -2.244470 9.499254 226 225 220
2.914362 -2.272744 9.694886 227 226 221
0.446304 -0.535183 1.434382 222 221 217
0.448903 -0.532366 1.434156 222 221 217
0.573589 -0.607345 1.826893 222 221 219
0.576244 -0.394302 1.423115 222 219 212
0.578843 -0.391484 1.422890 220 217 210
0.581441 -0.388666 1.422665 215 212 205
0.584040 -0.385849 1.422439 210 207 200
0.594435 -0.374578 1.421538 212 209 202
0.524656 -0.345152 1.225814 212 209 202
0.817457 -0.448023 2.007522 218 218 208
0.604830 -0.363308 1.420637 213 213 203
0.607429 -0.360490 1.420411 218 215 206
0.610028 -0.357672 1.420186 114 112 100
0.612627 -0.354855 1.419961 109 107 95
0.615226 -0.352037 1.419735 168 166 153
0.840472 -0.423069 2.005527 197 195 182
0.769315 -0.395137 1.809923 205 203 190
0.775431 -0.388505 1.809392 203 201 189
2.062746 -0.779184 5.127929 202 198 187
0.557823 -0.309192 1.222939 208 206 194
0.939312 -0.420988 2.198730 202 200 188
0.790722 -0.371926 1.808066 201 199 187
0.720325 -0.343169 1.612396 202 200 187
0.723154 -0.340102 1.612151 204 202 189
0.725982 -0.337036 1.611906 202 200 187
0.405048 -0.575182 1.439868 249 248 243
0.463285 -0.616705 1.636761 235 234 230
0.354378 -0.525455 1.242319 228 227 222
0.356747 -0.522886 1.242114 226 225 220
0.418042 -0.561094 1.438742 223 222 217
2.919244 -2.454482 10.107347 217 216 211
0.993401 -0.983924 3.408281 224 223 218
2.429444 -2.043553 8.332332 235 234 229
0.451827 -0.524465 1.435812 226 225 223
0.644309 -0.420437 1.621066 224 221 214
0.576569 -0.389218 1.424997 222 219 212
0.579167 -0.386401 1.424771 220 217 210
0.581766 -0.383583 1.424546 216 213 206
0.584365 -0.380765 1.424321 213 210 203
1.104208 -0.549794 2.792846 214 211 202
0.748289 -0.412365 1.813993 217 214 205
0.605155 -0.358224 1.422518 217 215 203
0.607754 -0.355407 1.422293 216 214 202
0.612952 -0.349771 1.421842 116 114 102
0.615550 -0.346954 1.421617 192 190 178
0.840883 -0.416637 2.007907 205 203 191
1.295684 -0.551522 3.180129 203 201 189
1.075549 -0.476203 2.593388 202 198 187
2.357307 -0.865796 5.915276 203 199 188
0.936234 -0.417921 2.201582 204 202 190
1.849985 -0.683192 4.545666 200 198 185
0.720679 -0.337636 1.614444 203 201 188
0.877051 -0.377425 2.004771 201 199 186
0.349936 -0.525958 1.244445 233 232 227
2.750387 -2.301689 9.524991 223 222 217
1.193073 -1.071262 4.000900 229 229 219
2.515884 -1.930465 8.332655 227 226 222
0.576893 -0.384135 1.426878 223 220 213
0.579492 -0.381317 1.426653 223 220 213
0.582091 -0.378500 1.426428 217 214 207
0.584690 -0.375682 1.426202 213 210 203
0.515772 -0.346158 1.230067 212 209 202
1.737833 -0.793366 4.560001 212 209 202
1.181606 -0.562466 2.991338 215 212 203
0.748672 -0.406383 1.816207 217 214 205
0.605480 -0.353141 1.424400 221 219 207
0.754788 -0.399751 1.815677 187 185 173
0.757846 -0.396435 1.815412 94 92 80
0.613277 -0.344688 1.423724 156 154 142
0.615875 -0.341870 1.423498 202 200 188
0.621073 -0.336235 1.423048 204 200 189
0.698405 -0.356637 1.618454 202 198 187
2.969551 -1.021612 7.484875 201 199 186
4.127213 -1.330151 10.416170 200 198 185
3.988156 -1.272426 10.024004 202 200 187
0.947227 -0.399599 2.203214 202 200 187
0.565519 -0.703219 2.036615 243 242 237
0.347863 -0.523892 1.246366 231 230 225
1.938473 -1.706510 6.772296 226 225 220
1.124839 -1.031247 3.808640 228 228 218
0.495106 -0.571906 1.638160 224 224 212
0.500763 -0.565773 1.637669 223 222 217
0.504222 -0.354367 1.232809 223 220 213
0.647845 -0.406305 1.624916 220 217 210
0.579817 -0.376234 1.428535 219 216 209
0.582416 -0.373416 1.428309 214 211 204
0.585015 -0.370598 1.428084 212 209 202
0.745996 -0.403716 1.818686 215 212 203
0.603206 -0.350875 1.426507 222 219 210
0.605805 -0.348057 1.426281 223 220 211
0.755170 -0.393769 1.817891 145 142 133
0.613601 -0.339604 1.425605 188 184 173
0.618799 -0.333969 1.425155 207 203 192
0.695930 -0.354171 1.620747 205 201 190
0.698758 -0.351104 1.620502 204 200 189
0.701587 -0.348038 1.620257 204 202 190
0.629194 -0.322699 1.424253 200 198 185
0.636990 -0.314246 1.423577 201 199 186
0.868009 -0.375256 2.010387 201 199 186
0.565818 -0.287584 1.227468 200 198 185
0.562642 -0.700352 2.039280 239 238 233
0.510895 -0.653047 1.841318 227 226 221
1.544681 -1.393575 5.395765 226 225 220
0.823931 -0.830698 2.826421 227 227 219
1.298882 -1.143025 4.404832 225 225 213
0.782737 -0.771951 2.627544 220 220 208
0.567148 -0.385238 1.431543 220 217 210
1.549275 -0.768138 4.180673 222 222 214
0.502150 -0.352301 1.234729 224 224 216
0.504519 -0.349732 1.234524 222 219 212
0.577543 -0.373968 1.430641 223 220 213
0.580142 -0.371150 1.430416 219 216 209
0.582741 -0.368333 1.430191 215 212 205
0.585340 -0.365515 1.429965 211 208 201
0.590537 -0.359880 1.429515 212 209 204
0.746378 -0.397734 1.820900 216 213 204
0.603531 -0.345792 1.428388 219 216 207
2.362505 -0.920520 6.134651 213 210 201
2.231446 -0.855797 5.741117 140 136 125
0.613926 -0.334521 1.427487 211 207 196
0.767786 -0.374524 1.819044 216 212 201
0.770844 -0.371208 1.818779 213 209 198
0.626920 -0.320433 1.426360 204 202 189
2.285013 -0.797718 5.736472 200 198 185
0.783077 -0.357945 1.817719 202 200 187
0.634717 -0.311980 1.425684 202 200 187
0.865132 -0.372389 2.013053 203 201 188
0.563746 -0.285518 1.229389 205 203 190
0.033368 -0.856245 1.277116 244 241 234
0.308778 -1.587554 3.279414 92 89 74
0.181698 -1.210380 2.277344 93 90 73
0.185216 -1.206566 2.277039 102 99 80
0.322777 -1.572377 3.278200 112 109 90
0.057059 -0.830559 1.275062 126 120 108
0.059428 -0.827990 1.274856 131 124 118
0.061797 -0.825422 1.274651 138 131 125
0.202804 -1.187497 2.275514 142 137 131
0.094493 -0.892964 1.474434 147 144 137
0.097092 -0.890147 1.474208 153 148 142
0.213357 -1.176055 2.274599 160 155 149
0.331460 -1.459971 3.074829 167 160 154
0.335897 -1.455161 3.074445 173 168 162
1.067979 -3.236209 8.076413 177 174 167
0.668973 -0.785063 2.437712 231 230 225
0.453385 -0.606841 1.645934 226 225 220
0.414144 -0.546395 1.446719 227 226 221
1.459631 -1.266709 5.003189 227 227 217
2.340401 -1.856638 7.966088 221 221 209
0.841284 -0.804225 2.828008 227 227 217
2.790013 -1.266173 7.724487 218 215 208
1.474422 -0.735717 3.988818 224 221 214
0.572670 -0.374520 1.432974 220 217 210
0.577868 -0.368884 1.432523 222 219 212
0.580467 -0.366067 1.432298 221 218 211
0.583066 -0.363249 1.432072 214 211 204
0.585664 -0.360432 1.431847 212 209 202
0.588263 -0.357614 1.431622 213 208 202
2.186487 -0.890610 5.750638 211 208 201
0.598658 -0.346343 1.430720 217 214 207
0.752877 -0.385121 1.822584 158 155 148
0.609053 -0.335073 1.429819 104 101 92
0.611652 -0.332255 1.429594 193 190 181
0.614251 -0.329438 1.429368 220 216 205
0.765110 -0.371858 1.821524 224 220 209
0.768168 -0.368542 1.821259 216 212 201
0.702294 -0.336972 1.624352 208 206 194
0.705122 -0.333905 1.624107 207 205 192
0.707951 -0.330839 1.623862 204 202 189
0.031296 -0.854179 1.279036 247 244 237
0.330614 -1.657958 3.483736 93 89 77
0.361658 -1.726872 3.683831 89 86 69
0.050248 -0.833631 1.277393 102 97 77
0.105833 -0.978511 1.678147 112 107 88
0.618572 -2.371481 5.486634 123 117 103
0.084423 -0.899151 1.477217 133 126 118
0.059724 -0.823356 1.276571 136 129 123
0.227253 -1.257158 2.478765 140 135 129
0.119975 -0.963178 1.676921 143 140 133
0.094818 -0.887881 1.476315 149 144 138
0.210279 -1.172988 2.277450 157 152 146
0.384469 -1.599567 3.479066 164 157 151
0.159964 -1.022394 1.876240 168 163 157
0.596595 -2.087589 4.880180 174 171 164
0.502485 -0.651030 1.846542 233 232 227
1.426805 -1.290041 5.010984 229 228 223
1.674726 -1.431535 5.800634 224 224 216
1.339420 -1.179639 4.612987 218 218 208
0.783731 -0.756392 2.633303 223 223 215
0.562600 -0.380707 1.435756 222 219 212
0.570396 -0.372254 1.435080 224 221 214
0.572995 -0.369436 1.434855 224 221 214
3.406708 -1.400016 9.300621 223 220 213
0.580792 -0.360983 1.434179 220 217 210
0.583390 -0.358166 1.433954 215 212 205
0.585989 -0.355348 1.433728 214 210 201
2.172139 -0.892234 5.757506 209 206 199
2.323974 -0.932760 6.149914 211 208 201
2.042802 -0.827317 5.363147 216 213 208
0.604181 -0.335625 1.432151 225 222 217
0.609378 -0.329989 1.431701 165 162 153
0.611977 -0.327172 1.431475 210 206 197
0.540647 -0.301936 1.234873 222 218 207
0.617175 -0.321537 1.431025 226 222 211
0.619774 -0.318719 1.430799 196 192 181
0.622372 -0.315901 1.430574 212 210 198
0.624971 -0.313084 1.430349 216 213 204
0.702647 -0.331439 1.626400 209 207 195
0.705476 -0.328373 1.626155 208 206 193
2.219042 -0.738809 5.550653 202 200 188
4.120630 -1.241413 10.455440 193 191 179
0.045806 -0.834134 1.279519 87 84 67
0.048175 -0.831565 1.279314 98 93 74
0.420238 -1.858338 4.088429 111 104 86
0.718823 -2.658310 6.295049 120 112 99
0.082149 -0.896886 1.479323 132 123 116
0.084747 -0.894068 1.479098 136 129 123
0.770485 -2.704453 6.493525 139 134 128
0.145055 -1.032991 1.879780 139 136 129
0.120329 -0.957645 1.678968 147 142 136
0.263231 -1.313483 2.681355 153 148 142
0.267208 -1.309171 2.681010 162 155 149
0.413555 -1.661273 3.683098 163 158 152
0.734423 -2.437088 5.887786 165 162 155
0.445607 -0.604975 1.650765 231 230 225
0.394004 -0.558770 1.452284 227 226 221
0.948114 -0.979545 3.433794 237 236 231
1.008131 -1.016629 3.631545 229 228 223
0.351417 -0.502788 1.253021 236 235 230
2.541710 -2.112086 8.978371 227 226 221
0.360893 -0.492513 1.252200 225 224 219
2.140842 -1.729473 7.389485 226 226 218
1.805824 -1.479775 6.200801 220 220 212
1.929231 -1.550284 6.596012 230 230 222
0.560326 -0.378441 1.437863 223 220 211
1.887791 -0.880131 5.178917 222 219 210
3.151564 -1.348722 8.722539 223 220 211
0.570721 -0.367170 1.436962 222 219 210
0.573320 -0.364353 1.436737 221 218 209
2.761787 -1.158393 7.538602 220 217 208
0.578518 -0.358718 1.436286 221 218 209
0.581116 -0.355900 1.436061 219 216 207
0.583715 -0.353082 1.435835 214 211 202
0.586314 -0.350265 1.435610 215 212 203
2.244986 -0.901476 5.959768 210 210 202
0.596709 -0.338994 1.434709 215 214 209
0.601907 -0.333359 1.434258 225 222 217
2.065281 -0.789850 5.366484 161 158 153
0.609703 -0.324906 1.433582 219 215 206
3.214056 -1.076658 8.311210 216 212 201
0.771991 -0.353262 1.825422 218 216 204
0.625296 -0.308000 1.432230 216 214 202
0.703001 -0.325906 1.628448 216 214 202
0.705829 -0.322840 1.628203 208 206 194
0.708658 -0.319773 1.627958 198 196 184
0.024781 -0.852617 1.283083 251 251 241
0.120972 -1.053535 1.884115 93 87 73
0.046102 -0.829500 1.281234 94 89 70
0.048471 -0.826931 1.281029 107 100 82
0.103711 -0.970512 1.682488 116 106 94
0.106540 -0.967446 1.682242 131 121 112
0.082473 -0.891802 1.481205 134 127 119
1.007307 -3.348131 8.307238 139 135 126
0.552693 -2.111506 4.893545 138 135 128
0.145438 -1.027009 1.881994 144 139 133
0.927279 -3.027952 7.501681 150 145 139
0.291771 -1.377035 2.884927 159 152 146
0.522163 -1.941135 4.489944 162 157 151
0.612171 -0.724446 2.247774 228 227 222
1.113486 -1.096543 4.032425 225 224 219
1.505119 -1.384087 5.420338 228 227 222
0.515482 -0.625803 1.849909 231 230 225
0.530774 -0.609224 1.848584 225 224 219
0.533832 -0.605908 1.848318 220 219 214
1.391702 -1.201846 4.820799 221 220 215
1.512640 -1.274196 5.216562 212 211 206
1.864284 -1.503359 6.404817 216 215 210
0.430711 -0.514239 1.451011 222 221 216
0.838654 -0.784099 2.837510 224 223 218
0.558052 -0.376175 1.439970 220 217 208
1.819040 -0.840258 4.986871 221 218 209
2.985033 -1.203862 8.135761 222 219 210
0.581441 -0.350817 1.437942 219 216 207
0.584040 -0.347999 1.437717 218 215 206
0.586639 -0.345181 1.437492 211 211 203
2.381467 -0.942625 6.359975 212 212 204
0.599633 -0.331093 1.436365 214 213 208
1.476285 -0.601457 3.797845 223 219 216
0.607429 -0.322640 1.435689 196 191 185
1.718976 -0.643539 4.386175 216 212 201
0.700526 -0.323440 1.630741 217 214 205
0.703354 -0.320374 1.630496 215 212 203
0.706183 -0.317307 1.630251 214 211 202
0.046415 -0.926166 1.486241 244 244 234
0.462451 -2.197507 4.906149 247 244 237
0.092751 -0.977246 1.685517 96 90 76
0.044029 -0.827434 1.283155 94 87 71
0.046398 -0.824865 1.282950 100 91 74
0.048768 -0.822297 1.282744 112 102 90
0.051137 -0.819728 1.282539 125 112 103
0.106893 -0.961913 1.684290 130 121 114
0.352034 -1.607994 3.492672 135 131 122
0.845688 -2.896499 7.109143 140 135 129
0.170145 -1.095972 2.085392 142 137 131
0.311496 -1.449309 3.089601 147 142 136
0.315933 -1.444499 3.089216 154 149 143
0.236153 -1.227042 2.486255 161 156 150
0.098391 -0.869813 1.481735 163 160 153
2.054661 -1.889674 7.614198 227 226 221
1.865864 -1.689097 6.817396 224 223 218
0.344902 -0.501225 1.257068 221 220 215
2.980155 -2.406020 10.583348 231 230 225
1.888517 -1.563218 6.612139 222 221 216
0.555778 -0.373909 1.442077 220 217 208
0.558377 -0.371092 1.441852 222 219 210
0.560976 -0.368274 1.441626 221 218 209
0.563575 -0.365457 1.441401 220 217 208
2.113789 -0.913703 5.779435 221 218 209
0.581766 -0.345733 1.439824 223 220 211
0.584365 -0.342915 1.439598 219 219 211
0.586964 -0.340098 1.439373 214 214 206
0.589563 -0.337280 1.439148 214 213 208
0.592161 -0.334463 1.438922 215 214 209
0.599958 -0.326010 1.438246 220 216 213
0.605155 -0.320374 1.437796 178 173 167
3.467464 -1.168447 9.118045 219 215 206
1.207671 -0.477668 3.011899 219 217 205
2.557084 -0.838351 6.554171 220 217 208
0.847459 -0.361621 2.026666 219 216 207
0.044141 -0.923900 1.488348 238 238 226
0.046740 -0.921082 1.488123 240 240 230
0.408828 -2.042004 4.508654 241 238 229
0.463264 -2.184785 4.910858 246 243 234
0.169826 -1.191231 2.291297 98 91 75
0.173344 -1.187418 2.290992 102 95 77
0.046695 -0.820231 1.284665 103 94 79
0.049064 -0.817663 1.284459 117 107 95
0.104418 -0.959447 1.686583 127 118 109
0.053802 -0.812526 1.284049 132 125 117
0.056171 -0.809957 1.283843 137 133 124
0.194450 -1.164534 2.289162 140 135 129
0.362438 -1.587801 3.495368 144 139 133
0.339692 -1.511562 3.293878 150 145 139
0.260745 -1.294457 2.690338 155 152 145
0.124218 -0.937980 1.684867 161 161 153
0.497898 -0.633733 1.855929 222 221 216
0.839995 -0.868228 3.047038 216 215 210
0.513189 -0.617154 1.854603 231 230 225
2.912968 -2.353996 10.395386 225 224 219
2.758215 -2.219080 9.798419 224 223 218
1.493491 -1.269604 5.228456 218 217 212
0.561301 -0.363191 1.443508 220 217 208
1.883439 -0.846818 5.194646 219 216 207
1.489083 -0.668982 4.008068 223 220 211
0.584690 -0.337832 1.441480 219 219 211
0.587289 -0.335014 1.441255 216 215 210
0.589887 -0.332197 1.441029 217 216 211
0.597684 -0.323744 1.440353 216 212 209
0.600283 -0.320926 1.440128 219 216 211
0.602881 -0.318109 1.439903 137 132 126
2.310999 -0.786854 5.971421 214 212 200
0.689919 -0.324642 1.635818 216 214 202
0.618474 -0.301203 1.438551 220 217 208
0.065173 -0.996848 1.692065 215 215 203
0.421030 -2.118253 4.715668 243 243 233
0.141375 -1.115192 2.092719 97 91 77
0.298279 -1.547967 3.300898 100 93 75
0.147951 -1.108063 2.092148 98 91 75
0.046991 -0.815597 1.286380 112 102 90
0.128235 -1.028957 1.890227 124 115 106
0.051729 -0.810460 1.285969 129 122 114
0.054098 -0.807892 1.285764 134 130 121
0.218353 -1.232696 2.493305 137 132 126
0.113257 -0.944714 1.687895 144 139 133
0.417930 -1.719686 3.901415 149 144 138
0.284935 -1.361471 2.894794 153 150 143
0.261242 -1.286677 2.693217 156 156 148
2.110949 -1.893737 7.827234 221 220 215
1.370410 -1.289890 5.040614 223 222 217
1.005568 -0.982081 3.646834 227 226 221
0.525804 -0.597909 1.855756 231 230 225
0.814991 -0.786779 2.848835 222 221 216
1.964876 -1.549701 6.821746 222 221 216
0.489449 -0.536844 1.655278 223 222 217
2.677040 -1.079012 7.370890 221 218 209
2.404942 -0.972095 6.579960 222 220 208
1.848500 -0.771541 4.999161 222 219 210
1.293278 -0.569662 3.418257 222 222 214
1.084226 -0.494872 2.825491 221 220 215
3.891877 -1.369585 10.523647 215 214 209
0.598009 -0.318660 1.442235 224 221 216
0.600607 -0.315843 1.442010 196 191 185
2.442987 -0.830365 6.373031 216 212 201
2.451329 -0.821321 6.372307 210 208 196
2.828884 -0.914382 7.357724 211 209 197
0.616200 -0.298937 1.440658 216 213 204
1.584727 -0.555116 4.003879 219 216 207
1.441249 -0.509713 3.609058 219 216 207
1.521136 -0.523580 3.805762 220 217 208
0.270639 -1.669504 3.510522 177 177 165
0.508877 -2.411840 5.527860 242 242 232
0.398250 -2.031464 4.518455 243 243 233
0.458386 -2.166392 4.920839 248 245 236
0.167188 -1.181284 2.296696 94 87 71
0.068180 -0.888374 1.490083 95 88 72
0.070779 -0.885557 1.489858 105 98 82
0.073378 -0.882739 1.489632 119 111 100
0.049656 -0.808395 1.287890 126 119 111
0.078575 -0.877104 1.489182 129 125 116
0.241854 -1.300458 2.697821 132 127 121
0.569947 -2.145500 5.114966 140 135 129
0.440484 -1.785547 4.107194 148 143 137
0.308723 -1.428085 3.099622 151 148 141
0.313160 -1.423274 3.099237 153 153 145
1.479309 -0.659243 4.017123 217 214 205
1.138350 -0.528595 3.027689 220 217 208
1.142787 -0.523785 3.027305 223 220 213
1.093165 -0.477521 2.827808 221 220 215
0.598334 -0.313577 1.444116 220 215 209
0.606130 -0.305124 1.443440 214 210 199
0.608729 -0.302306 1.443215 209 207 195
0.611327 -0.299489 1.442990 211 208 199
0.613926 -0.296671 1.442764 215 212 203
0.587004 -2.712621 6.342244 130 131 115
0.086185 -1.063413 1.898368 229 227 214
0.416324 -2.100509 4.725298 247 245 233
0.452695 -2.160721 4.926112 248 246 234
0.164110 -1.178217 2.299548 91 85 73
0.040476 -0.814035 1.290427 95 87 74
0.068505 -0.883291 1.491965 105 97 84
0.174663 -1.166775 2.298633 116 106 96
0.152061 -1.091635 2.096624 127 117 107
0.102651 -0.945915 1.692972 129 120 113
0.318111 -1.509475 3.306036 136 129 123
0.751716 -2.633684 6.531931 141 136 132
0.516712 -1.991668 4.716594 145 140 136
0.059428 -0.793486 1.288783 151 146 142
0.171789 -1.070246 2.094914 152 147 143
2.730198 -1.086469 7.584197 217 214 205
2.179957 -0.885881 6.000160 220 217 208
0.507184 -0.308026 1.249961 220 217 208
0.509553 -0.305457 1.249756 223 220 213
0.511922 -0.302888 1.249550 223 220 213
0.514291 -0.300320 1.249345 221 218 211
0.588263 -0.319764 1.446899 221 218 211
0.601257 -0.305676 1.445773 221 218 211
0.603856 -0.302858 1.445547 221 218 211
0.606455 -0.300041 1.445322 221 218 211
0.609054 -0.297223 1.445097 219 216 209
0.611652 -0.294405 1.444871 220 217 210
2.627158 -0.799603 6.777258 217 214 207
0.080451 -1.064062 1.901112 103 104 88
0.266967 -1.655658 3.518036 207 205 192
0.202377 -1.428005 2.911226 243 241 229
0.588733 -2.596751 6.143918 246 244 232
0.536027 -2.256986 5.331940 96 90 78
0.088862 -0.955716 1.696246 97 89 76
0.066231 -0.881025 1.494071 102 94 81
0.094519 -0.949583 1.695756 113 103 91
0.045510 -0.804264 1.291731 122 112 102
0.100176 -0.943449 1.695265 127 118 109
0.314028 -1.505407 3.309819 131 124 116
0.637986 -2.344895 5.731374 137 132 126
0.672247 -2.406977 5.932540 142 137 133
0.246825 -1.280587 2.703235 148 143 139
0.196209 -1.137011 2.299350 151 146 142
3.638735 -1.373683 10.166345 218 215 206
0.710444 -0.381018 1.846489 220 217 208
0.643249 -0.354644 1.648178 221 218 209
0.716560 -0.374386 1.845959 219 216 209
0.507480 -0.303391 1.251676 222 219 212
0.509849 -0.300823 1.251471 222 219 212
0.512218 -0.298254 1.251265 220 217 210
0.514587 -0.295686 1.251060 220 217 210
0.516956 -0.293117 1.250855 222 219 212
0.519325 -0.290549 1.250649 222 219 212
0.593786 -0.309045 1.448330 222 219 212
3.210805 -1.043831 8.570353 225 222 215
1.183825 -0.463138 3.030267 223 220 213
1.261271 -0.478397 3.227689 224 221 214
1.123665 -0.429137 2.831346 223 220 213
