ply
format ascii 1.0
element vertex 1220
property float x
property float y
property float z
property uchar red
property uchar green
property uchar blue
end_header
0.624950 -2.498343 8.623251 131 125 113
0.701656 -2.673750 9.309224 176 169 159
0.488076 -2.078912 6.762701 231 222 215
0.067745 -0.974536 2.147455 228 219 212
0.095574 -1.034619 2.375068 230 221 214
0.100307 -1.037998 2.372880 223 214 207
0.105039 -1.041377 2.370692 216 207 200
0.158350 -1.159868 2.827002 206 197 190
3.625626 -4.600749 6.995404 231 228 219
0.833846 -1.400931 1.071809 232 229 220
0.950350 -1.524331 1.258423 232 228 219
1.245610 -1.855796 1.843347 231 227 216
4.653614 -5.656475 8.443947 130 120 35
3.974494 -4.890068 7.074584 123 113 28
0.148180 -1.581077 5.480776 74 69 47
0.283046 -1.955502 7.102696 73 69 44
0.103242 -1.350330 4.298498 74 70 45
0.013321 -1.047731 2.896408 75 70 48
0.265723 -1.823936 6.388873 77 72 52
0.438939 -2.305208 8.474285 82 77 58
-0.069560 -0.750159 1.491063 85 80 61
-0.048356 -0.805031 1.721870 88 83 64
-0.044518 -0.807772 1.720095 88 83 64
0.105407 -1.232680 3.575665 94 88 74
0.037394 -1.025189 2.644667 120 114 102
0.042425 -1.028781 2.642341 152 146 132
0.162799 -1.313393 3.789740 54 48 32
0.169321 -1.318050 3.786725 82 77 58
0.217136 -1.431656 4.245839 115 109 93
0.266144 -1.546114 4.704402 163 157 143
0.295102 -1.606523 4.931624 206 199 189
0.841646 -2.990078 10.694201 228 221 213
0.198763 -1.299341 3.532501 231 222 217
0.228019 -1.359963 3.759586 230 221 216
0.311949 -1.539089 4.442613 221 212 205
0.319366 -1.544384 4.439184 216 207 200
0.399458 -1.720770 5.123986 186 177 170
0.407769 -1.726704 5.120143 149 140 131
0.926498 -1.501121 1.271144 231 228 219
1.615932 -2.271531 2.636660 229 229 217
2.010972 -2.712536 3.416456 232 227 221
1.153231 -1.742483 1.647536 231 228 219
2.103511 -2.778613 3.373670 120 109 27
0.338880 -2.095904 7.803829 74 70 43
0.398800 -2.256444 8.498353 76 72 47
0.132358 -1.398912 4.528920 80 75 53
0.106363 -1.301847 4.059454 81 76 56
0.130188 -1.358110 4.289181 85 80 60
0.517953 -2.498533 9.406232 89 84 65
0.360830 -1.915318 6.589968 123 115 104
0.218199 -1.499458 4.729974 152 144 133
0.147637 -1.252815 3.558886 63 55 44
0.174443 -1.311207 3.787234 119 111 98
0.222727 -1.424188 4.246396 183 175 162
0.356919 -1.755518 5.628807 220 212 201
0.301395 -1.598116 4.932251 232 223 216
0.030464 -0.894385 1.927864 231 222 215
0.034600 -0.897338 1.925951 230 221 214
0.084077 -1.011170 2.384561 230 221 214
0.088809 -1.014550 2.382372 230 221 214
0.209874 -1.297255 3.530110 229 220 213
0.286792 -1.469933 4.216775 219 210 203
0.293911 -1.475016 4.213484 196 188 185
0.349351 -1.593107 4.669335 162 154 151
0.357066 -1.598616 4.665768 116 109 101
0.389539 -1.661054 4.891497 89 82 72
0.735737 -1.280227 0.879552 231 228 219
1.019021 -1.600260 1.470802 231 228 219
1.023158 -1.603213 1.468890 231 228 219
1.809376 -2.439372 2.790578 125 117 32
0.247556 -1.818173 6.646798 73 68 46
0.273403 -1.875402 6.875721 74 70 45
0.347983 -2.083742 7.804736 78 74 49
0.114423 -1.335393 4.299611 82 77 55
0.171466 -1.492440 4.995859 87 82 62
0.196419 -1.549029 5.225197 89 84 64
0.349735 -1.852362 6.358681 123 115 104
0.378863 -1.911933 6.586088 155 147 136
0.132006 -1.192862 3.327985 76 68 57
0.221198 -1.411636 4.250243 169 161 150
0.228317 -1.416719 4.246952 231 223 212
0.278262 -1.529925 4.705608 232 224 213
0.056020 -0.944746 2.158747 228 219 212
0.060454 -0.947912 2.156697 223 214 207
0.087793 -1.006205 2.384931 227 218 211
0.347753 -1.618317 4.914353 221 212 205
0.402768 -1.735143 5.370665 204 195 188
0.435176 -1.797056 5.596555 177 168 161
0.468181 -1.859395 5.822169 129 122 116
0.209038 -1.247866 3.292369 97 90 84
1.111417 -1.698347 1.670782 232 229 220
1.115851 -1.701513 1.668732 232 229 220
4.312203 -5.302091 8.380613 232 229 220
5.080202 -6.160651 9.952520 232 229 220
0.537019 -2.774434 11.337535 72 67 47
0.553084 -2.785905 11.330108 75 70 51
0.537782 -2.698396 10.855171 79 74 55
0.601195 -2.858550 11.548869 83 78 58
0.487322 -2.470907 9.673473 86 81 61
0.169746 -1.478311 5.000191 86 81 61
0.177759 -1.484033 4.996486 88 83 64
0.099901 -1.236981 3.827455 88 83 64
0.318910 -1.737987 5.895247 123 115 104
0.484594 -2.162627 7.746688 157 149 138
0.468703 -2.036404 7.031019 90 82 71
0.184687 -1.297522 3.788254 184 176 165
0.276605 -1.516322 4.709778 228 220 209
0.217297 -1.320807 3.773177 226 217 210
0.223819 -1.325464 3.770162 222 213 206
0.137787 -1.110867 2.845916 212 203 196
0.330609 -1.554883 4.684810 184 175 168
0.172180 -1.173716 3.071020 155 146 139
0.225873 -1.288639 3.528206 117 108 101
0.280760 -1.404414 3.984841 83 76 68
0.144834 -1.077607 2.601652 106 99 89
1.208417 -1.798762 1.868897 233 230 221
2.922037 -3.711613 5.414704 232 229 220
1.719572 -2.355207 2.837592 232 229 220
2.536070 -3.244557 4.388128 235 232 223
0.593660 -2.940261 12.282986 76 71 51
0.518993 -2.660076 10.870684 79 74 55
0.393891 -2.230444 8.758290 83 77 61
0.565847 -2.731344 11.090158 87 81 65
0.597829 -2.791992 11.316509 89 83 67
-0.046652 -0.819344 1.968994 90 84 68
0.098501 -1.225481 3.830980 90 84 70
0.105023 -1.230138 3.827965 89 83 67
0.164665 -1.386160 4.523802 91 85 71
0.242718 -1.555328 5.211125 90 84 72
0.269929 -1.612569 5.439682 93 86 76
0.278538 -1.618716 5.435701 104 95 86
0.404123 -1.935258 6.824461 133 124 115
0.434315 -1.994629 7.051638 170 162 151
0.456117 -1.972384 6.800421 111 103 92
0.253664 -1.449709 4.482653 186 178 167
0.239497 -1.401782 4.248065 221 213 202
0.165015 -1.197352 3.317953 228 219 212
0.081028 -0.986136 2.392235 227 218 211
0.199642 -1.259889 3.543080 214 205 198
0.182792 -1.210046 3.309734 199 190 183
0.282208 -1.432279 4.228318 164 155 148
0.147301 -1.109081 2.843869 122 113 106
0.200568 -1.222739 3.301515 86 77 70
0.094026 -0.957605 2.145088 112 106 94
0.148784 -1.072328 2.602045 105 99 85
0.179275 -1.131912 2.829085 111 105 89
0.927040 -1.476792 1.277668 231 228 219
1.305886 -1.898551 2.067058 233 230 221
2.542475 -3.273081 4.630103 232 229 220
2.646030 -3.384835 4.823362 231 228 219
1.916138 -2.561168 3.231730 233 230 221
2.019096 -2.672496 3.425265 233 230 221
3.279880 -4.064302 5.977124 234 230 219
0.052891 -1.257076 4.337484 74 70 43
-0.024374 -0.977917 2.925595 72 68 43
-0.004683 -1.029309 3.157759 73 69 44
0.000944 -1.033327 3.155157 75 70 48
0.081364 -1.277408 4.324319 79 74 52
0.469902 -2.488125 10.176401 83 78 58
0.593361 -2.837600 11.808202 85 80 61
0.641728 -2.946800 12.268377 87 81 65
0.158292 -1.444332 5.012558 91 85 71
0.114147 -1.263485 4.067893 91 85 73
0.173000 -1.417503 4.764489 92 86 74
0.206371 -1.478662 4.990329 92 86 72
0.278008 -1.641808 5.681014 95 89 77
0.249245 -1.546608 5.211775 90 83 73
-0.067715 -0.685651 1.256751 107 100 90
-0.064473 -0.687965 1.255252 148 139 130
-0.051507 -0.697224 1.249257 185 177 166
0.237969 -1.389231 4.251913 165 157 146
0.245087 -1.394313 4.248622 204 196 185
0.384900 -1.718134 5.631592 231 223 212
0.147254 -1.137799 3.087511 221 212 205
0.175594 -1.195366 3.315677 203 194 187
0.181519 -1.199597 3.312937 181 172 165
0.164136 -1.149854 3.079705 143 134 127
0.240584 -1.316435 3.768166 104 95 88
0.271011 -1.375493 3.995367 80 71 62
0.064138 -0.891794 1.919595 113 104 95
0.142673 -1.059866 2.607091 117 111 97
0.152735 -1.067050 2.602439 112 106 90
0.157766 -1.070642 2.600113 121 116 97
2.406948 -3.161968 4.696695 230 227 218
3.589878 -4.417279 6.803723 232 229 220
1.044423 -1.591762 1.466359 231 228 219
1.239514 -1.805728 1.858696 231 228 219
0.810752 -1.312915 0.850590 132 126 40
0.094196 -1.348812 4.804329 75 71 46
0.101910 -1.354321 4.800762 79 74 52
0.347938 -2.119616 8.549419 83 78 56
0.436388 -2.367029 9.715526 86 81 59
0.326437 -1.993710 7.835158 88 83 63
0.101191 -1.280105 4.318294 90 85 66
0.269184 -1.768572 6.654627 90 84 70
0.377598 -2.067092 8.052904 92 86 74
0.205904 -1.502280 5.235481 94 88 74
0.196637 -1.458811 4.998366 94 88 76
0.212663 -1.470255 4.990956 96 90 76
0.460827 -2.126521 8.014423 96 90 78
0.303775 -1.682717 5.914432 104 98 86
0.332050 -1.739759 6.142760 128 122 110
-0.065169 -0.682250 1.257004 176 170 158
-0.061927 -0.684564 1.255506 214 206 195
-0.035182 -0.740513 1.484540 232 224 213
-0.052203 -0.691508 1.251009 222 214 203
-0.048961 -0.693823 1.249511 213 205 194
0.200052 -1.276993 3.789784 119 111 100
0.272729 -1.439442 4.480383 186 178 167
0.123696 -1.075067 2.859485 214 206 195
0.129025 -1.078872 2.857022 190 181 172
0.157301 -1.135913 3.085349 152 143 134
0.186173 -1.193380 3.313400 111 102 93
0.215641 -1.251273 3.541176 86 77 68
0.059114 -0.881547 1.923743 107 98 89
0.087688 -0.938801 2.151933 113 105 94
0.141593 -1.050995 2.609810 118 110 99
0.182316 -1.116924 2.832382 120 114 98
0.187645 -1.120729 2.829918 124 118 102
2.233852 -2.950327 4.297856 230 227 218
0.925392 -1.463258 1.281817 231 228 219
4.486936 -5.406709 8.808350 231 228 219
0.839146 -1.364823 1.080293 231 228 219
3.599450 -4.404491 6.804676 232 229 220
1.238498 -1.797383 1.861254 231 228 219
1.243230 -1.800762 1.859066 231 228 219
2.496087 -3.174425 4.418012 232 229 220
2.368173 -3.009386 3.994352 230 225 206
-0.004716 -1.047537 3.404273 75 71 46
0.140568 -1.514988 5.752422 76 72 47
0.121008 -1.428279 5.278401 79 74 52
0.100254 -1.340718 4.804932 83 78 56
0.152461 -1.487109 5.505391 87 82 62
0.161070 -1.493257 5.501410 89 84 64
0.077118 -1.215084 4.091033 90 85 65
0.083938 -1.219954 4.087880 90 85 65
0.703391 -2.898891 12.013566 92 86 72
0.300004 -1.737946 6.403302 96 90 76
0.185117 -1.401314 4.765696 97 91 77
0.347820 -1.808460 6.622727 103 97 83
0.432750 -2.014588 7.549587 119 113 101
0.520065 -2.222420 8.475345 166 160 148
0.339514 -1.729787 6.143503 212 206 194
-0.062623 -0.678849 1.257258 228 222 210
0.186241 -1.293003 4.040580 229 221 208
0.049584 -0.940826 2.413039 231 223 212
0.372168 -1.680361 5.645341 140 132 121
0.139211 -1.113937 3.096196 84 76 65
0.256268 -1.379376 4.249735 127 119 108
0.511812 -1.961929 6.788437 157 149 138
0.156093 -1.125991 3.088391 121 112 103
0.208081 -1.235855 3.547418 87 79 68
0.190826 -1.187163 3.313864 75 67 56
0.101644 -0.977998 2.388969 96 88 77
0.130452 -1.034940 2.617182 119 111 100
0.159856 -1.092307 2.845119 123 115 104
0.120574 -0.991516 2.380216 122 114 101
0.155606 -1.052901 2.605552 124 118 104
0.238230 -1.221012 3.291946 125 119 105
2.681974 -3.438781 5.301994 231 228 221
0.928406 -1.459231 1.282118 232 229 220
1.026102 -1.565361 1.478480 232 229 220
1.124395 -1.671918 1.674566 232 229 220
1.034375 -1.571268 1.474655 232 229 220
1.428180 -1.997948 2.258707 231 228 219
2.581277 -3.257765 4.623955 232 229 220
1.438838 -2.005558 2.253779 232 229 220
-0.005988 -1.037089 3.407476 75 70 48
0.097040 -1.361893 5.051486 80 75 53
0.034203 -1.137570 3.872221 86 81 61
0.040725 -1.142227 3.869205 89 84 64
0.219481 -1.664668 6.444858 90 85 66
0.312003 -1.802515 6.885408 91 85 73
0.236640 -1.569247 5.711933 91 85 71
0.262998 -1.623959 5.941410 95 89 73
0.272204 -1.630533 5.937154 95 89 73
-0.079527 -0.661560 1.266504 100 94 80
-0.076286 -0.663874 1.265005 113 107 93
0.579472 -2.388301 9.420043 150 144 130
0.593151 -2.398069 9.413719 190 184 170
0.356713 -1.762658 6.381408 225 219 207
0.177956 -1.276107 4.047420 227 221 207
0.184777 -1.280977 4.044267 218 210 197
0.028136 -0.882000 2.183380 216 208 195
0.239879 -1.392104 4.502117 221 213 202
0.289353 -1.499214 4.962570 222 214 203
0.169403 -1.198217 3.568047 227 219 208
0.327005 -1.561990 5.186826 212 204 193
0.313392 -1.516379 4.951456 152 144 133
0.343627 -1.573859 5.179140 82 74 63
0.689740 -2.359365 8.644069 66 58 47
0.793798 -2.577231 9.562613 86 78 67
0.807776 -2.587212 9.556150 73 65 54
0.076915 -0.916831 2.160827 109 101 90
0.105360 -0.973033 2.389339 121 113 100
0.110093 -0.976412 2.387151 118 110 97
0.194276 -1.144196 3.073220 127 119 106
0.199903 -1.148214 3.070618 129 122 106
0.205531 -1.152232 3.068016 129 123 109
0.211158 -1.156250 3.065414 130 124 112
0.242884 -1.214795 3.292409 131 125 111
2.870103 -3.629114 5.702665 231 228 221
1.119008 -1.660933 1.679013 232 229 220
1.499812 -2.076408 2.469603 232 229 220
1.083121 -1.599417 1.453942 239 237 225
4.526612 -5.314411 8.320067 213 212 194
1.004342 -1.507274 1.248702 105 102 49
2.813036 -3.444802 4.762395 118 115 60
1.316921 -1.838142 1.829172 121 117 69
1.019694 -1.518236 1.241604 125 121 76
0.824872 -1.307342 0.848353 136 129 85
0.060288 -1.251928 4.588424 82 77 55
0.523362 -2.751145 12.353565 86 81 61
0.032803 -1.126070 3.875746 89 84 64
0.140154 -1.450600 5.518679 92 87 68
0.200421 -1.493633 5.490815 90 84 70
0.242610 -1.594580 5.954899 94 88 74
0.234728 -1.553541 5.716748 96 90 76
0.261022 -1.607727 5.946386 97 91 77
0.323282 -1.758416 6.642986 97 91 77
0.351365 -1.813880 6.871797 111 105 91
0.453169 -2.063627 8.033704 144 138 124
-0.073740 -0.660473 1.265258 191 185 171
0.816744 -2.960633 12.217920 218 212 198
0.834002 -2.972956 12.209941 234 228 216
0.216036 -1.363140 4.516414 224 218 204
0.042820 -0.920757 2.420343 213 207 191
0.371493 -1.686608 5.895310 221 213 200
0.359436 -1.642588 5.659089 218 210 197
0.346782 -1.598142 5.423144 205 197 186
0.442830 -1.808368 6.345917 187 179 168
0.275369 -1.405506 4.488981 134 126 115
0.552259 -2.028149 7.262504 69 61 50
0.044041 -0.850807 1.936188 67 59 46
0.048177 -0.853761 1.934275 95 87 76
0.075963 -0.909012 2.163224 117 109 98
0.080397 -0.912178 2.161174 120 112 101
0.084832 -0.915344 2.159124 119 111 100
0.138353 -1.024383 2.617968 122 114 103
0.168226 -1.081125 2.845952 126 118 107
0.173555 -1.084930 2.843488 128 120 109
0.178884 -1.088735 2.841024 131 123 112
0.184213 -1.092540 2.838560 133 125 114
0.267646 -1.258348 3.525371 133 127 115
0.247537 -1.208578 3.292873 135 129 117
0.280094 -1.267236 3.519615 138 132 120
0.930596 -1.448437 1.284492 231 228 219
1.086370 -1.595077 1.454265 190 188 176
0.893503 -1.386540 1.059847 107 104 89
1.003519 -1.500507 1.250777 81 76 44
0.907662 -1.396650 1.053301 101 97 60
2.211105 -2.787709 3.593990 121 117 79
0.814451 -1.294682 0.854602 132 126 92
0.085587 -1.327914 5.063854 84 79 59
0.382219 -2.273270 10.007170 90 85 66
0.536915 -2.733038 12.354915 92 87 67
0.149691 -1.373687 5.034215 91 85 69
0.173833 -1.425857 5.264980 91 85 71
0.198572 -1.478453 5.495468 94 88 74
0.324264 -1.812718 7.130843 93 87 73
0.386033 -1.961616 7.828064 95 89 75
-0.087402 -0.645499 1.273006 97 91 77
0.391596 -1.930658 7.583566 110 104 90
-0.063000 -0.697854 1.503650 136 130 116
-0.059460 -0.700382 1.502013 178 172 158
-0.074436 -0.654758 1.267011 210 204 190
-0.071194 -0.657072 1.265512 228 222 208
0.032338 -0.905654 2.427278 227 221 209
0.037071 -0.909033 2.425090 219 213 199
0.261874 -1.453791 4.982347 217 211 195
0.290191 -1.508942 5.211182 213 207 191
0.319105 -1.564519 5.439740 213 205 192
0.390418 -1.720231 6.132549 215 207 196
0.548316 -2.077494 7.753033 207 199 188
0.581405 -2.136052 7.979661 189 181 170
0.484317 -1.892072 6.814915 165 157 146
0.516810 -1.950204 7.041819 128 120 109
0.594683 -2.110602 7.731595 85 77 66
0.089130 -0.946205 2.401020 87 79 68
0.047290 -0.846468 1.936511 108 100 89
0.122181 -1.004736 2.627666 117 109 98
0.151095 -1.060312 2.856224 119 111 100
0.108061 -0.959723 2.392267 119 111 100
0.112794 -0.963102 2.390079 123 115 104
0.117526 -0.966481 2.387891 127 119 108
0.147335 -1.022697 2.616036 128 120 109
0.253863 -1.238486 3.534490 130 121 112
0.285759 -1.296192 3.761669 135 126 117
0.188398 -1.086949 2.838977 139 130 121
0.351341 -1.412882 4.215201 138 131 121
0.252191 -1.202361 3.293336 140 133 123
0.365578 -1.423048 4.208619 142 135 125
4.518744 -5.401590 9.304275 231 228 221
1.121539 -1.648461 1.681757 232 229 220
0.937448 -1.447151 1.283018 232 229 220
1.205793 -1.708622 1.642802 92 88 63
0.910442 -1.392936 1.053577 125 121 92
1.214662 -1.714955 1.638701 145 140 111
1.552646 -2.061083 2.208215 204 194 158
0.959999 -1.428322 1.030665 128 121 30
4.617601 -5.262594 7.807007 126 116 29
0.078200 -1.275288 4.828747 91 85 69
-0.081821 -0.747618 1.998031 93 87 71
0.109019 -1.262844 4.572439 91 85 69
0.132203 -1.313849 4.803778 91 85 71
0.172049 -1.411202 5.269472 94 88 74
0.458544 -2.201435 9.252005 96 90 76
0.255319 -1.608464 6.199206 98 92 78
0.298744 -1.708372 6.663246 98 92 78
0.395136 -1.949455 7.828971 104 98 84
0.476954 -2.145679 8.759376 130 124 110
-0.063760 -0.691613 1.505564 171 165 151
-0.060220 -0.694140 1.503927 212 206 192
0.217066 -1.374445 4.764542 225 219 205
0.031322 -0.897309 2.429836 216 210 196
0.055699 -0.949166 2.660624 213 207 195
0.060730 -0.952758 2.658298 213 207 193
0.187204 -1.249770 4.052173 210 204 188
0.358334 -1.647571 5.909518 208 202 188
0.430051 -1.802132 6.602535 206 198 187
0.503557 -1.957971 7.294725 193 184 175
0.535986 -2.015577 7.521790 174 166 155
0.590743 -2.123577 7.980590 152 144 133
0.800901 -2.583696 10.061949 103 95 84
0.837803 -2.644496 10.286946 70 62 51
0.042265 -0.836221 1.940659 101 93 82
0.185738 -1.145371 3.326676 120 112 101
0.097580 -0.944619 2.399202 117 109 98
0.102312 -0.947999 2.397014 119 111 100
0.155280 -1.054721 2.856641 121 113 102
0.160609 -1.058526 2.854177 124 115 106
0.165938 -1.062332 2.851713 128 119 110
0.121243 -0.961516 2.388261 130 121 112
0.201906 -1.122465 3.077142 132 123 114
0.233142 -1.179220 3.304758 134 125 116
0.368601 -1.448197 4.452421 137 128 119
0.323608 -1.347169 3.989107 140 131 122
0.303925 -1.298663 3.756148 141 134 124
0.417652 -1.517673 4.671800 141 137 126
0.316969 -1.307977 3.750118 144 137 127
1.280744 -1.789452 1.852163 144 142 130
1.105275 -1.595258 1.449175 103 100 81
1.109411 -1.598211 1.447263 139 137 116
0.913222 -1.389222 1.053854 146 143 124
4.030480 -4.648607 6.874339 151 142 83
4.105398 -4.702101 6.839700 130 120 33
0.138237 -1.339708 5.046583 93 87 71
0.211176 -1.493701 5.739430 94 88 76
0.336269 -1.820817 7.376923 97 91 79
0.228991 -1.506422 5.731193 98 92 78
0.358259 -1.836519 7.366756 121 115 101
0.439225 -2.030215 8.298082 163 157 143
-0.082311 -0.638697 1.273512 201 195 181
-0.079069 -0.641012 1.272014 224 218 204
0.189010 -1.308021 4.538728 225 219 205
0.177443 -1.265791 4.301886 221 215 201
0.203843 -1.318612 4.531870 214 208 194
0.074199 -0.988247 2.896480 209 203 189
0.226093 -1.334500 4.521582 214 208 194
0.233510 -1.339796 4.518153 212 206 190
0.344791 -1.589109 5.677653 197 191 177
0.522268 -1.987600 7.533116 174 166 155
0.576300 -2.094123 7.992515 150 141 134
0.869869 -2.745362 11.005253 136 127 118
0.753841 -2.458689 9.605759 108 99 90
0.087098 -0.929516 2.406136 102 94 83
0.106029 -0.943033 2.397384 120 111 102
0.135113 -0.997771 2.626127 126 117 108
0.164794 -1.052935 2.854594 128 119 110
0.145175 -1.004956 2.621474 131 122 113
0.175452 -1.060546 2.849666 134 125 116
0.206325 -1.116561 3.077582 138 129 122
0.237795 -1.173003 3.305221 139 130 123
0.400566 -1.493052 4.683105 141 132 125
0.276086 -1.234314 3.529708 143 134 127
0.389258 -1.451007 4.446143 143 136 128
0.369640 -1.403028 4.213023 143 139 130
0.595428 -1.836016 6.046150 146 142 133
1.470421 -1.985212 2.250934 203 201 189
1.377739 -1.885063 2.051596 134 130 121
0.805880 -1.272906 0.862856 111 109 94
1.108523 -1.590918 1.449498 135 133 118
1.760656 -2.260394 2.601124 228 217 199
3.151767 -3.695328 5.106412 123 116 26
1.493449 -1.967685 1.998097 137 127 40
0.141371 -1.396026 5.533313 94 87 68
0.238366 -1.599247 6.457754 93 87 73
0.216293 -1.516505 5.983316 96 90 76
0.257970 -1.613245 6.448690 92 86 72
0.267773 -1.620244 6.444158 99 93 81
0.311239 -1.718263 6.908704 117 111 99
0.338768 -1.771410 7.138298 157 151 137
0.349465 -1.779048 7.133352 198 192 178
-0.083007 -0.632982 1.275265 228 222 208
0.180001 -1.289648 4.546166 214 208 194
0.150175 -1.201370 4.075313 213 207 193
0.024558 -0.877240 2.437140 216 210 196
0.485963 -1.943495 7.554885 205 199 185
0.231917 -1.326718 4.522162 196 190 176
0.280752 -1.428569 4.984227 169 163 149
0.309772 -1.482782 5.213131 134 128 116
0.168946 -1.147792 3.581991 104 95 86
0.218377 -1.250069 4.043779 99 90 85
0.063286 -0.871403 2.176913 100 91 82
0.113910 -0.974532 2.638150 118 109 100
0.109746 -0.938068 2.397754 124 115 106
0.139064 -0.992493 2.626520 127 118 109
0.218747 -1.149862 3.316643 128 119 112
0.224672 -1.154093 3.313904 132 123 116
0.358000 -1.416747 4.463868 138 129 122
0.288081 -1.266350 3.769230 140 131 124
0.216372 -1.114675 3.075420 140 131 124
0.433000 -1.537281 4.913835 144 135 128
0.494359 -1.648076 5.370108 144 137 129
0.341140 -1.337727 3.987020 147 140 132
0.511578 -1.660371 5.362147 147 143 134
0.575324 -1.772869 5.817318 150 147 138
1.575692 -2.118782 2.689257 231 228 221
1.394670 -1.922543 2.288310 231 228 221
1.399999 -1.926348 2.285846 231 228 221
1.371628 -1.872600 2.056641 184 182 170
1.376659 -1.876192 2.054315 114 112 100
1.595063 -2.099123 2.437980 89 87 72
1.700128 -2.207635 2.631724 127 128 112
0.808426 -1.269505 0.863109 144 145 131
2.080285 -2.579556 3.182923 191 180 150
0.847325 -1.297280 0.845124 144 135 80
1.492369 -1.958814 2.000817 124 117 26
0.261593 -1.699082 7.178701 95 88 72
0.165351 -1.399288 5.526025 94 86 73
0.282987 -1.714358 7.168809 94 86 73
0.214317 -1.500273 5.988292 94 86 73
0.320552 -1.774192 7.393894 103 97 83
0.545656 -2.364061 10.441709 119 113 101
-0.076659 -0.665306 1.516214 152 146 134
-0.090186 -0.622637 1.280014 194 188 176
-0.086944 -0.624951 1.278516 223 217 203
0.153031 -1.225440 4.319455 227 221 207
0.014076 -0.862136 2.444075 210 204 190
0.037366 -0.911777 2.675760 202 196 182
0.258120 -1.432519 5.240680 214 208 194
0.208075 -1.297754 4.536458 216 210 196
0.294493 -1.491501 5.466316 215 209 195
0.555872 -2.074262 8.254906 172 166 152
0.237742 -1.318937 4.522742 132 126 112
0.203272 -1.228303 4.053773 97 91 77
0.210092 -1.233173 4.050619 90 84 72
0.027193 -0.805481 1.953104 127 118 113
0.097737 -0.954884 2.647848 146 137 132
0.112830 -0.965661 2.640869 119 110 101
0.094532 -0.919585 2.406876 119 110 101
0.099264 -0.922964 2.404688 122 113 104
0.157177 -1.030337 2.862819 129 120 113
0.187027 -1.084662 3.091470 134 125 118
0.217475 -1.139413 3.319846 137 128 121
0.198282 -1.092699 3.086267 138 129 122
0.312395 -1.306222 4.003320 141 132 125
0.241177 -1.156338 3.308888 144 135 128
0.299724 -1.264164 3.766725 144 135 128
0.359465 -1.372842 4.224010 148 139 132
0.474213 -1.586819 5.140769 147 140 134
0.455319 -1.540317 4.907052 146 141 135
0.490836 -1.598689 5.133084 149 146 137
0.638157 -1.868935 6.277235 154 151 142
0.768831 -1.236014 0.882846 226 223 216
1.277696 -1.764418 1.859838 100 98 86
5.440560 -6.123327 10.118167 74 72 60
1.692931 -2.192956 2.637667 102 100 87
1.599482 -2.093219 2.438420 139 137 124
1.969346 -2.456350 2.994772 232 225 207
2.696538 -3.206670 4.355726 221 210 188
1.053131 -1.505037 1.236306 186 175 143
2.713757 -3.218965 4.347765 143 134 77
1.372349 -1.832005 1.816075 132 122 51
1.064645 -1.513259 1.230983 124 116 35
1.277371 -1.731175 1.617535 122 115 24
1.281805 -1.734342 1.615485 121 114 24
0.131667 -1.328845 5.302813 96 88 77
0.154893 -1.377960 5.534660 95 87 76
0.330845 -1.861431 8.121741 98 90 79
0.404780 -2.044344 9.057897 99 91 80
0.560147 -2.448056 11.169326 103 95 84
-0.084499 -0.654009 1.521400 117 109 98
0.427622 -2.028125 8.804751 145 139 127
0.540631 -2.304000 10.208010 187 181 167
-0.073879 -0.661592 1.516490 223 217 203
0.197181 -1.343095 5.029938 224 218 204
0.115709 -1.122269 3.854682 210 204 190
0.140426 -1.172449 4.085839 203 197 183
0.036286 -0.902906 2.678479 199 193 179
0.275426 -1.464026 5.478931 209 203 189
0.206483 -1.284677 4.540467 206 200 186
0.174527 -1.196798 4.070073 196 190 176
0.674952 -2.334850 9.660737 143 137 123
0.894738 -2.817090 11.984967 101 95 81
0.201808 -1.216278 4.057459 85 79 65
0.022169 -0.795235 1.957252 113 107 95
0.026305 -0.798188 1.955340 125 116 109
0.030441 -0.801142 1.953427 144 134 132
0.116780 -0.960383 2.641263 120 111 102
0.145374 -1.013330 2.870627 127 118 109
0.150703 -1.017136 2.868163 128 119 110
0.204351 -1.120503 3.328529 133 124 117
0.234735 -1.174728 3.557066 137 128 121
0.240958 -1.179172 3.554188 139 130 123
0.197074 -1.082776 3.089309 141 132 125
0.291802 -1.248007 3.773265 140 131 124
0.298324 -1.252664 3.770250 146 137 130
0.304846 -1.257321 3.767235 148 139 132
0.391898 -1.417072 4.454740 148 139 132
0.399315 -1.422367 4.451311 149 142 136
0.406732 -1.427663 4.447882 153 148 142
0.469624 -1.537632 4.903973 155 152 143
0.561746 -1.701002 5.589135 156 156 146
1.169992 -1.647363 1.669139 213 210 203
0.784343 -1.241871 0.877105 135 132 125
0.787585 -1.244186 0.875606 87 84 75
4.647146 -5.268767 8.551941 78 76 63
5.058065 -5.692304 9.332291 109 107 94
1.498964 -1.979854 2.244793 141 139 126
1.048469 -1.495529 1.240155 226 221 201
1.258681 -1.710691 1.628133 218 208 183
1.263115 -1.713857 1.626083 179 168 136
1.163766 -1.610387 1.429432 135 126 69
1.063821 -1.506491 1.233057 122 112 41
0.977438 -1.412280 1.030412 128 118 31
0.197597 -1.490742 6.246864 96 87 82
0.222250 -1.540396 6.478182 98 88 86
0.355630 -1.892036 8.358245 99 90 83
0.367818 -1.900739 8.352610 113 104 95
0.428137 -2.039960 9.052871 144 136 125
-0.081719 -0.650295 1.521677 187 179 168
0.454302 -2.058643 9.040773 216 210 198
0.552076 -2.288709 10.209150 229 223 209
0.248065 -1.462678 5.738097 211 205 191
0.025145 -0.886851 2.685851 205 199 185
0.030175 -0.890443 2.683525 201 195 181
0.330655 -1.585751 6.185344 206 200 186
0.359483 -1.638386 6.414732 197 191 177
0.231930 -1.322956 4.774691 173 167 153
0.219724 -1.282191 4.537618 138 132 118
0.017144 -0.784988 1.961400 108 102 88
0.021281 -0.787942 1.959488 113 107 93
0.025417 -0.790895 1.957576 123 117 105
0.029553 -0.793849 1.955663 134 125 118
0.092500 -0.902895 2.411993 121 112 105
0.144230 -1.003934 2.873508 127 118 111
0.125762 -0.958697 2.639330 133 124 115
0.154888 -1.011544 2.868580 135 126 117
0.184611 -1.064818 3.097554 137 128 121
0.220856 -1.122748 3.323513 142 133 126
0.232707 -1.131211 3.318033 142 133 126
0.264517 -1.185975 3.546042 144 135 128
0.296924 -1.241165 3.773775 148 139 132
0.303446 -1.245822 3.770760 150 141 134
0.336747 -1.301651 3.998079 153 144 137
0.397723 -1.409290 4.455320 154 145 138
0.459891 -1.517781 4.912010 155 148 142
0.495578 -1.575314 5.138226 157 152 146
0.503890 -1.581248 5.134383 161 158 149
0.597012 -1.743893 5.819477 162 162 152
0.978561 -1.439433 1.274171 119 116 111
1.080154 -1.544025 1.469916 83 80 73
3.953405 -4.525111 7.180241 88 86 73
4.460929 -5.047757 8.159168 128 126 111
1.398573 -1.867542 2.050843 149 147 134
1.154606 -1.597187 1.435493 225 220 200
1.158742 -1.600141 1.433581 212 202 177
1.162878 -1.603094 1.431668 178 168 133
1.183559 -1.617861 1.422106 130 123 32
1.082187 -1.513427 1.226259 124 117 27
0.416250 -2.073550 9.549836 100 90 88
0.522228 -2.338643 10.957925 115 105 103
0.318157 -1.750947 7.652405 138 129 120
0.345430 -1.801991 7.882643 180 172 161
0.438411 -2.026234 9.053894 212 204 191
0.633830 -2.513042 11.634870 228 220 207
0.019034 -0.874388 2.690896 206 200 186
0.347576 -1.614103 6.424563 203 197 183
0.434418 -1.802393 7.355803 178 172 158
0.288948 -1.445960 5.480277 145 139 125
0.237988 -1.314862 4.775295 106 100 86
0.185239 -1.182487 4.071139 87 81 67
0.032871 -0.821129 2.198802 107 101 87
0.058355 -0.870895 2.429868 114 108 92
0.111112 -0.971706 2.891172 118 112 98
0.116441 -0.975511 2.888708 134 127 117
0.055043 -0.836961 2.188551 158 151 143
0.119651 -0.946234 2.644375 125 116 109
0.290815 -1.289442 4.265174 135 126 119
0.177776 -1.050877 3.103198 137 128 121
0.232062 -1.152781 3.563794 142 133 126
0.287542 -1.255536 4.023839 145 136 129
0.328463 -1.284755 4.004919 154 143 137
0.388714 -1.390917 4.462758 153 142 136
0.396131 -1.396213 4.459329 157 146 140
0.540106 -1.656868 5.607002 163 152 148
0.781188 -2.081572 7.438322 159 156 147
0.679655 -1.882793 6.513873 163 160 151
0.689756 -1.890005 6.509203 167 164 155
1.157854 -1.592848 1.435816 223 217 203
1.058335 -1.490216 1.238981 209 199 172
2.205663 -2.656731 3.379841 174 165 124
0.610822 -2.563539 12.381668 141 132 127
0.471906 -2.153448 10.016099 182 173 168
0.549844 -2.333459 10.951983 218 210 199
-0.067025 -0.680479 1.760987 230 222 209
0.260045 -1.504731 6.226379 221 213 200
0.149790 -1.208374 4.576498 220 214 200
0.307566 -1.538663 6.204408 202 196 182
0.372868 -1.678562 6.903154 202 196 182
0.628938 -2.265576 9.943495 181 175 161
0.643213 -2.275769 9.936895 144 138 124
0.579512 -2.105924 8.994429 109 103 89
0.216540 -1.256037 4.545636 84 78 64
0.052606 -0.859171 2.434614 107 101 87
0.057339 -0.862551 2.432426 115 109 95
0.040788 -0.819643 2.197099 118 112 96
0.235426 -1.176252 3.807965 124 115 108
0.170940 -1.036937 3.108841 129 120 113
0.248470 -1.185566 3.801934 140 131 124
0.352055 -1.383890 4.725960 139 130 123
0.442142 -1.510397 5.170267 150 141 134
0.695231 -1.908743 6.754109 163 159 150
0.621202 -1.762613 6.059397 164 161 152
0.659147 -1.820798 6.284833 167 164 155
1.387422 -3.118067 12.022605 168 165 156
0.834120 -1.261758 0.858381 230 228 213
4.626107 -5.119735 8.095397 226 224 211
1.368285 -1.798626 1.826308 223 215 204
1.830055 -2.252710 2.584726 128 119 28
-0.091078 -0.626515 1.530690 213 204 197
-0.087539 -0.629043 1.529054 229 220 211
0.182709 -1.311769 5.293885 226 218 205
0.207766 -1.360271 5.525410 209 201 188
0.318642 -1.623100 6.932814 208 200 187
0.086244 -1.028620 3.636706 210 204 190
0.410003 -1.810775 7.863018 213 207 193
0.457473 -1.905890 8.327293 209 203 189
0.706745 -2.481810 11.372488 207 201 187
0.352100 -1.616381 6.674233 189 183 169
0.588206 -2.152289 9.482405 155 149 135
0.831468 -2.693307 12.287267 116 110 96
0.188101 -1.193180 4.318947 87 81 67
0.046858 -0.847447 2.439361 113 107 91
0.072213 -0.896162 2.670749 115 109 93
0.098165 -0.945303 2.901861 111 105 91
0.103494 -0.949108 2.899397 115 109 95
0.157784 -1.049093 3.360518 122 114 101
0.008911 -0.728522 1.727571 132 124 113
0.216943 -1.121945 3.576278 132 123 116
0.318780 -1.317100 4.501638 140 131 124
0.229390 -1.130833 3.570523 140 133 125
0.333613 -1.327692 4.494780 142 135 127
0.248061 -1.144165 3.561890 145 138 130
0.406652 -1.441065 4.947233 146 142 133
0.543129 -1.691564 6.099689 151 144 136
0.604615 -1.796688 6.557483 152 145 137
0.545054 -1.662329 5.855687 153 146 136
2.363968 -2.808067 3.799153 227 225 213
2.474018 -2.917257 3.991382 226 224 209
1.372002 -1.793660 1.826678 223 215 204
1.376734 -1.797040 1.824490 205 195 168
1.728497 -2.140043 2.391185 128 121 30
0.027841 -0.916639 3.179970 222 214 201
0.344764 -1.715400 7.655054 217 209 196
0.039096 -0.924675 3.174766 211 203 190
0.274973 -1.484788 6.227865 204 198 184
0.302054 -1.534254 6.458587 208 202 188
0.383356 -1.712827 7.393968 206 200 186
0.430698 -1.806890 7.858565 193 187 173
0.608533 -2.205040 9.965529 157 151 137
0.791736 -2.607022 12.070010 117 111 97
0.255726 -1.350526 5.263793 87 81 67
0.021146 -0.791339 2.210094 112 106 90
0.045841 -0.839102 2.441919 115 109 93
0.091692 -0.932101 2.907205 114 108 92
0.117878 -0.980929 3.138341 117 111 95
0.102350 -0.939712 2.902277 117 109 96
0.064772 -0.852620 2.433166 122 114 101
0.162438 -1.042876 3.360982 130 122 111
0.235408 -1.185370 4.056972 153 145 134
0.192065 -1.064032 3.347283 128 117 111
0.269509 -1.209719 4.041206 134 125 118
0.276329 -1.214589 4.038052 139 130 123
0.209842 -1.076725 3.339064 143 136 128
0.289970 -1.224329 4.031746 144 140 131
0.321822 -1.277203 4.260261 145 141 132
0.632906 -1.860887 7.035345 147 143 134
0.387316 -1.384228 4.716466 147 144 135
0.376521 -1.346390 4.478214 150 146 137
0.463507 -1.498891 5.167724 151 147 136
0.498640 -1.554107 5.394723 156 152 141
1.103884 -2.649133 10.466230 157 153 142
0.570695 -1.665817 5.847894 159 155 144
2.974146 -3.412119 4.979898 225 223 210
3.188191 -3.625217 5.367419 226 224 212
1.044349 -1.461693 1.250528 225 223 210
2.702667 -3.127882 4.375688 227 225 213
1.267224 -1.681095 1.633967 226 222 213
5.474574 -5.860392 9.175163 131 121 34
0.138785 -1.194345 4.834779 204 198 184
0.064901 -0.993340 3.652067 202 196 180
0.037888 -0.914753 3.177808 211 205 191
0.527616 -2.064979 9.522491 201 195 181
0.576917 -2.159482 9.986446 192 186 172
0.663629 -2.339997 10.919852 164 158 144
0.329356 -1.537968 6.450289 119 113 99
0.226925 -1.286930 5.037402 91 85 71
0.035360 -0.823999 2.448853 116 110 96
0.040093 -0.827378 2.446665 117 111 97
-0.056158 -0.610403 1.274295 116 110 96
0.418468 -1.631248 6.652463 118 112 98
0.137464 -1.015504 3.375143 123 117 103
0.101206 -0.930315 2.905158 123 117 103
0.063756 -0.844275 2.435724 126 118 105
0.117194 -0.941731 2.897766 135 127 116
0.211660 -1.127782 3.827587 144 135 126
0.285929 -1.269763 4.523372 191 182 173
0.443380 -1.530438 5.667447 140 131 124
0.452288 -1.536798 5.663328 143 134 127
0.461195 -1.543159 5.659210 147 140 132
0.545008 -1.691954 6.350582 146 142 133
0.630610 -1.842026 7.041128 147 144 135
0.641307 -1.849664 7.036182 149 146 137
0.729592 -2.001653 7.725486 148 148 138
0.427251 -1.429972 4.944781 151 148 139
0.488182 -1.532779 5.403358 152 149 140
0.828791 -1.242297 0.865137 230 228 215
1.443482 -1.859111 2.041180 224 222 209
0.835274 -1.246926 0.862139 224 222 209
1.150166 -1.560722 1.446672 225 223 210
2.288414 -2.699628 3.597520 225 223 211
2.399230 -2.808405 3.789658 225 223 211
0.502474 -2.083343 10.027164 197 191 175
0.295092 -1.526891 6.713963 210 204 190
0.270892 -1.451272 6.238140 212 206 192
0.297845 -1.499687 6.469184 197 191 177
0.520611 -2.008786 9.288260 161 155 141
0.515947 -1.976286 9.046911 113 107 93
0.235535 -1.309347 5.280463 82 76 62
0.043819 -0.851589 2.690537 95 89 75
0.068088 -0.898088 2.922822 113 107 93
0.092953 -0.945012 3.154832 121 115 101
-0.053613 -0.607002 1.274548 124 118 104
0.156921 -1.049027 3.612268 127 121 109
0.079035 -0.876735 2.674255 125 119 107
0.190694 -1.102312 3.840159 125 119 107
0.089097 -0.883919 2.669603 130 122 109
0.116049 -0.932334 2.900647 138 130 119
3.157081 -3.833006 7.582271 125 126 121
3.169866 -3.842135 7.576360 73 73 71
3.263321 -3.938035 7.776657 59 61 58
1.047133 -1.538831 1.983147 47 49 46
1.135519 -1.631112 2.185787 51 53 48
1.560305 -2.080276 3.206917 50 52 47
0.977082 -1.459642 1.772029 53 56 49
0.981516 -1.462808 1.769979 76 79 72
1.070796 -1.555728 1.972206 101 102 96
1.160673 -1.649073 2.174157 111 110 105
2.361896 -2.915173 5.027854 138 137 132
2.542582 -3.102531 5.431326 185 182 175
1.849779 -2.257804 2.829572 225 223 210
0.834578 -1.241210 0.863891 224 222 209
2.073928 -2.476196 3.212949 224 222 210
1.153414 -1.556382 1.446995 224 222 209
-0.191747 -0.589217 2.070758 88 83 63
-0.172391 -0.631727 2.305446 85 80 61
-0.193696 -0.501757 1.340746 83 78 59
-0.190455 -0.504072 1.339248 79 74 55
-0.179073 -0.540888 1.577623 75 70 51
-0.167095 -0.578130 1.815723 71 66 47
-0.180730 -0.511015 1.334751 69 64 45
0.003078 -1.187361 5.878883 61 55 39
-0.036170 -1.015889 4.678841 71 65 49
-0.038682 -0.985406 4.436365 90 84 70
-0.011109 -1.062473 4.910891 99 93 81
0.348784 -1.663725 7.668146 200 194 180
0.444019 -1.875174 8.842302 201 195 181
0.542236 -2.088753 10.015080 192 186 172
0.452203 -1.852329 8.594881 164 158 144
0.376275 -1.654665 7.411798 122 116 102
0.243420 -1.330287 5.524122 88 82 68
-0.018025 -0.713262 1.990438 98 92 78
0.023863 -0.800551 2.458346 114 108 94
0.047770 -0.846311 2.690930 119 113 99
0.052800 -0.849903 2.688604 122 116 104
0.123068 -0.986145 3.387029 119 113 101
-0.054309 -0.601286 1.276300 127 121 109
0.176250 -1.081498 3.849715 132 126 114
0.203735 -1.129813 4.080645 132 126 114
0.210555 -1.134683 4.077492 132 126 114
0.131136 -0.963217 3.139661 132 126 114
0.275328 -1.238313 4.534819 142 134 123
1.825020 -2.373552 4.061954 48 52 53
1.832735 -2.379061 4.058387 48 50 47
1.349652 -1.861982 2.819915 47 49 46
0.962826 -1.442324 1.780577 49 51 48
1.050850 -1.533866 1.983517 51 53 50
1.558905 -2.068777 3.210442 51 53 48
0.891944 -1.363021 1.569712 55 58 51
3.008170 -3.591337 6.682212 74 77 70
0.984998 -1.458156 1.770325 101 104 97
1.329753 -1.819084 2.585478 113 114 109
1.420759 -1.912755 2.787039 136 137 132
1.598037 -2.096719 3.192349 176 175 170
4.183799 -4.803751 9.305947 213 213 205
2.146665 -2.545842 3.425966 225 223 210
5.614309 -5.997336 10.106374 223 221 208
1.045715 -1.444132 1.254978 223 221 208
1.313147 -1.692469 1.618605 126 119 31
4.103432 -4.430782 6.663091 128 121 33
-0.194785 -0.552179 1.830219 89 84 64
-0.184362 -0.587831 2.069169 88 83 63
-0.173343 -0.623909 2.307843 87 82 62
-0.183373 -0.532119 1.581173 82 77 58
-0.179833 -0.534646 1.579536 78 73 54
-0.176293 -0.537174 1.577900 74 69 50
-0.056896 -0.932731 4.204158 68 62 46
-0.050076 -0.937601 4.201005 83 77 63
-0.022929 -1.013404 4.675992 98 94 82
-0.161976 -0.519188 1.327511 104 98 86
2.462377 -3.041908 5.720829 48 50 49
3.040452 -3.652144 7.159940 45 49 50
1.682441 -2.202905 3.643742 49 51 48
1.696678 -2.213071 3.637159 49 51 48
1.479906 -1.973658 3.006076 58 60 55
1.148451 -1.624148 2.184248 78 81 74
1.238200 -1.716442 2.386522 105 108 101
1.243529 -1.720247 2.384058 112 115 108
1.248858 -1.724052 2.381594 143 144 139
1.511024 -1.995878 2.991689 179 180 175
1.643674 -2.034178 2.442819 223 221 208
1.987954 -2.364637 3.014948 223 221 208
1.098623 -1.475731 1.232209 125 117 32
-0.191771 -0.548152 1.830519 90 85 66
-0.187933 -0.550893 1.828744 89 84 65
-0.191846 -0.492640 1.342752 84 79 59
-0.188605 -0.494955 1.341253 81 76 57
-0.177053 -0.530933 1.579813 78 73 54
-0.173513 -0.533460 1.578177 73 68 49
-0.039354 -0.989735 4.686859 66 60 46
-0.022136 -1.029758 4.922799 79 73 59
0.005778 -1.105148 5.397694 94 88 74
0.055680 -1.251697 6.350225 103 97 85
1.723623 -2.220851 3.627842 53 54 49
0.806111 -1.260685 1.369146 57 58 53
2.243993 -2.758794 4.850653 86 87 82
2.337555 -2.853330 5.051296 107 108 102
2.431713 -2.948292 5.251662 118 119 111
1.673965 -2.157664 3.406901 156 157 149
1.851882 -2.340163 3.812442 184 185 179
0.832977 -1.279869 1.356725 214 215 207
0.663929 -1.103703 0.947083 178 180 169
1.240292 -1.626169 1.656204 223 221 208
0.851940 -1.237951 0.860156 224 222 209
-0.177957 -0.633584 2.557923 92 87 68
-0.173224 -0.636964 2.555735 92 87 68
-0.188757 -0.544126 1.830819 91 85 69
-0.184919 -0.546866 1.829044 89 83 67
-0.184893 -0.519636 1.585000 86 81 62
-0.181353 -0.522163 1.583363 83 78 59
-0.177813 -0.524691 1.581727 80 75 56
-0.174273 -0.527219 1.580090 77 72 53
-0.012629 -1.078624 5.409872 63 57 41
-0.043267 -0.947751 4.447908 73 67 53
-0.026113 -0.987249 4.684009 89 83 69
0.001971 -1.061801 5.159090 98 92 78
-0.156885 -0.512386 1.328018 101 95 81
0.127065 -1.396365 7.297544 101 95 81
-0.150402 -0.517015 1.325021 106 100 86
-0.135336 -0.555022 1.562087 114 108 94
0.195525 -1.526995 7.997989 134 128 114
-0.140677 -0.523959 1.320524 157 151 137
2.071695 -2.594175 4.690214 50 52 49
0.885144 -1.338189 1.578331 51 53 48
1.225253 -1.690038 2.397211 63 64 59
1.989206 -2.480776 4.240288 88 89 83
2.081809 -2.574148 4.441505 111 112 106
2.175008 -2.667946 4.642447 125 126 118
1.672501 -2.145638 3.410587 160 161 153
3.474493 -4.004572 7.702114 191 192 184
0.749612 -1.186914 1.152930 181 182 174
0.753152 -1.189442 1.151293 60 62 51
4.411495 -4.728132 7.756954 222 220 207
5.241161 -5.484045 8.837551 116 109 31
3.763420 -4.047385 6.104333 119 111 28
-0.188438 -0.618481 2.564857 95 89 77
-0.191162 -0.562998 2.077789 94 88 72
-0.180633 -0.597285 2.317085 94 88 72
-0.169508 -0.631998 2.556105 94 88 72
-0.178754 -0.571858 2.072052 93 87 73
-0.174617 -0.574812 2.070139 91 85 71
-0.170481 -0.577765 2.068227 88 82 66
-0.064142 -0.867848 3.972373 71 65 49
-0.047648 -0.906394 4.208911 83 77 63
-0.030558 -0.945366 4.445174 99 93 79
-0.160823 -0.504355 1.331269 102 96 82
0.124769 -1.377504 7.303326 108 102 88
0.135466 -1.385142 7.298380 126 120 106
-0.136095 -0.548780 1.564000 145 139 125
-0.144615 -0.515928 1.323775 170 164 150
-0.141373 -0.518243 1.322277 198 192 178
0.368085 -1.952776 10.853289 218 212 198
0.954584 -1.407882 1.792215 52 53 47
0.796787 -1.241670 1.376845 52 53 48
2.640508 -3.147087 5.896005 52 53 48
1.140180 -1.593944 2.194732 68 69 64
2.071713 -2.553559 4.449840 95 96 90
1.910973 -2.385245 4.035831 116 117 111
2.003512 -2.478091 4.237209 133 134 128
2.947869 -3.446863 6.486389 173 174 166
4.069627 -4.595845 9.141874 203 204 196
0.745312 -1.178145 1.156480 215 216 211
0.748852 -1.180673 1.154843 167 168 163
0.752392 -1.183201 1.153207 62 63 57
4.426867 -4.690317 7.511720 222 220 205
5.359903 -5.570698 9.033641 116 109 31
3.344721 -3.623158 5.326247 121 110 28
1.532588 -1.874141 2.013302 128 117 35
1.115342 -1.469132 1.229560 127 117 28
0.067266 -1.871288 12.464841 96 90 78
-0.177151 -0.592633 2.317431 96 90 74
-0.165791 -0.627033 2.556475 96 90 74
-0.175505 -0.567519 2.072375 95 89 73
-0.171369 -0.570472 2.070463 93 87 71
-0.099997 -0.752879 3.258942 67 62 43
0.088206 -1.386752 7.813543 68 62 46
-0.059020 -0.861005 3.972883 77 71 55
-0.042292 -0.899238 4.209444 94 88 74
0.006543 -1.039264 5.164047 111 105 91
-0.158277 -0.500954 1.331522 114 108 94
-0.143935 -0.537484 1.569187 124 118 104
-0.151794 -0.505584 1.328525 152 146 132
-0.148552 -0.507898 1.327026 183 177 163
-0.121321 -0.579920 1.803027 207 201 187
0.083537 -1.120530 5.372745 212 206 192
0.795963 -1.234902 1.378919 54 55 49
2.972544 -3.472589 6.724259 60 61 55
3.487327 -3.997900 7.952022 75 76 70
1.144131 -1.588665 2.195126 104 105 99
1.740394 -2.198446 3.629512 117 118 112
1.323713 -1.769472 2.600687 142 143 135
4.136258 -4.645288 9.362057 179 180 174
4.407796 -4.918044 9.969398 203 204 196
0.744552 -1.171904 1.158393 220 221 215
0.920594 -1.350183 1.565591 152 153 148
0.751632 -1.176959 1.155120 56 56 54
5.277684 -5.486607 9.078612 222 220 205
3.608061 -3.873799 5.941836 224 223 203
3.138401 -3.406997 4.937506 125 114 34
3.284737 -3.537776 5.114143 123 113 24
1.013576 -1.363999 1.034010 127 115 31
-0.194630 -0.469778 1.349761 96 90 74
-0.070263 -0.816668 3.736532 72 66 50
-0.043756 -0.887213 4.213131 95 89 73
-0.026496 -0.925346 4.449578 113 107 93
0.002098 -0.997381 4.925212 139 133 119
-0.155731 -0.497553 1.331776 170 164 150
-0.152490 -0.499868 1.330277 197 191 177
0.071774 -1.150367 5.870706 212 206 192
0.708394 -1.140387 1.176673 54 55 50
0.878344 -1.313356 1.586951 57 58 52
2.636044 -3.110416 5.907247 64 65 59
1.557026 -2.004435 3.228579 88 89 83
1.058951 -1.493935 1.992301 107 108 102
1.570070 -2.013749 3.222548 123 124 116
1.745984 -2.190977 3.630068 155 156 148
4.047943 -4.531515 9.165288 192 193 185
3.466067 -3.935368 7.723329 216 217 211
0.923842 -1.345844 1.565915 45 46 41
2.316513 -2.753213 4.832847 31 31 31
1.361842 -1.710212 1.852260 221 219 206
5.605885 -5.772999 9.667107 220 218 205
1.002197 -1.350175 1.040833 128 116 34
2.315455 -2.597605 3.366772 127 117 30
-0.201809 -0.459433 1.354511 98 92 76
-0.198568 -0.461747 1.353012 99 93 77
-0.195326 -0.464062 1.351513 99 93 77
-0.192084 -0.466377 1.350014 98 92 76
-0.120779 -0.669264 2.784399 72 67 48
-0.061820 -0.838006 3.979933 69 64 45
-0.055298 -0.842663 3.976918 95 89 73
-0.038400 -0.880057 4.213664 148 142 126
-0.148995 -0.522473 1.574651 177 171 157
-0.002815 -0.956124 4.686329 204 198 184
-0.130645 -0.560905 1.810725 212 206 192
0.026851 -0.977307 4.672613 199 193 179
0.109048 -1.187970 6.101962 194 188 174
0.786639 -1.215887 1.386617 52 54 51
0.790477 -1.218627 1.384843 55 57 54
0.711174 -1.136673 1.176950 60 61 56
0.714714 -1.139200 1.175313 78 79 73
0.969466 -1.397090 1.791205 106 107 101
0.973900 -1.400257 1.789155 111 112 106
1.484336 -1.916703 3.020506 142 143 135
1.913719 -2.349945 4.044774 171 172 164
2.006364 -2.441426 4.246499 201 202 194
1.172156 -1.592478 2.186608 200 201 193
0.660449 -1.075124 0.955844 105 106 98
0.663691 -1.077439 0.954345 34 35 29
-0.205747 -0.451402 1.357762 99 93 79
-0.202505 -0.453717 1.356263 99 93 79
-0.199263 -0.456032 1.354764 100 94 80
-0.196022 -0.458346 1.353265 100 94 80
-0.192780 -0.460661 1.351767 100 94 80
-0.181613 -0.493484 1.591294 99 93 79
-0.178073 -0.496011 1.589657 99 93 77
-0.082651 -0.762935 3.503062 74 69 50
-0.006630 -0.991156 5.180746 104 99 80
0.022006 -1.061301 5.656887 181 175 159
-0.011824 -0.937751 4.693767 209 203 187
0.017409 -1.008321 5.169632 211 205 191
0.789653 -1.211860 1.386917 57 59 56
0.793491 -1.214600 1.385143 67 69 66
0.880704 -1.301723 1.589510 88 89 84
0.884840 -1.304676 1.587598 113 114 109
0.972948 -1.392438 1.791552 126 129 122
1.398731 -1.820708 2.818142 151 154 147
1.489224 -1.910173 3.020993 191 194 185
3.023037 -3.452657 6.716259 213 216 207
0.656512 -1.067094 0.959095 172 173 167
0.659753 -1.069409 0.957596 87 88 80
3.639281 -4.041774 7.899480 24 24 24
-0.203201 -0.448001 1.358015 98 94 82
-0.172090 -0.567690 2.322919 99 95 83
-0.193476 -0.454945 1.353519 99 95 83
-0.182373 -0.487242 1.593207 102 98 86
-0.178833 -0.489770 1.591570 103 99 87
-0.177268 -0.466519 1.346025 87 84 67
-0.174027 -0.468833 1.344526 76 73 56
-0.083923 -0.752487 3.506265 77 72 53
0.130943 -1.417647 8.548183 101 96 77
-0.154054 -0.507463 1.580114 201 196 177
0.218595 -1.626444 9.976589 218 212 196
0.027989 -0.978607 4.923454 198 192 178
0.702575 -1.119135 1.184050 56 58 55
0.623400 -1.038232 0.975834 65 67 64
0.792667 -1.207833 1.387218 87 89 86
1.962859 -2.384560 4.273686 108 110 107
0.883952 -1.297383 1.589834 120 121 116
1.223718 -1.637465 2.412030 140 141 136
2.323720 -2.739705 5.086129 170 173 166
2.924453 -3.339234 6.522133 194 197 190
0.745052 -1.149466 1.164410 61 62 56
-0.173042 -0.559871 2.325316 100 96 84
-0.190212 -0.475946 1.598394 101 97 85
-0.144142 -0.628283 2.801861 101 97 85
-0.139112 -0.631875 2.799535 104 100 88
-0.177964 -0.460803 1.347777 102 96 82
-0.174723 -0.463117 1.346278 98 92 78
-0.171481 -0.465432 1.344780 94 88 74
-0.059499 -0.808164 3.987494 100 93 77
-0.042793 -0.843980 4.224724 172 165 149
0.705355 -1.115421 1.184327 78 79 74
1.538382 -1.949122 3.248711 100 101 96
1.794644 -2.203770 3.865089 116 117 112
1.885606 -2.292609 4.067986 134 135 130
1.222574 -1.628068 2.414911 156 155 151
3.499726 -3.899041 7.975813 193 194 188
3.175348 -3.571867 7.145976 205 208 201
0.826385 -1.225730 1.373322 90 93 86
0.830223 -1.228471 1.371547 42 43 37
1.010954 -1.405297 1.777893 56 57 51
1.024257 -1.414797 1.771742 46 47 41
0.130218 -1.752415 12.480638 101 97 85
-0.187432 -0.472232 1.598670 102 98 86
-0.191626 -0.445829 1.355524 103 99 87
-0.188385 -0.448143 1.354026 103 99 87
-0.118500 -0.685310 3.282396 104 100 88
-0.173273 -0.482342 1.592124 105 101 89
-0.178660 -0.455087 1.349529 107 103 91
-0.175419 -0.457402 1.348031 107 101 87
-0.095991 -0.701382 3.271989 115 109 95
-0.080542 -0.735822 3.509931 122 114 101
-0.064497 -0.770687 3.747598 149 143 127
0.004235 -0.960213 5.186331 186 180 164
0.226571 -1.587134 9.985237 202 196 180
0.708135 -1.111707 1.184603 113 114 108
0.961223 -1.362648 1.802843 127 128 122
1.716988 -2.112972 3.659181 153 154 148
3.148355 -3.532971 7.163834 182 183 178
3.160543 -3.541674 7.158199 204 203 198
0.817885 -1.213482 1.378945 206 209 202
0.906994 -1.300518 1.582831 132 137 131
0.911130 -1.303471 1.580919 65 67 62
0.915266 -1.306425 1.579006 36 37 32
1.096465 -1.482625 1.985399 36 39 32
1.023305 -1.406978 1.774139 59 60 54
-0.188192 -0.465990 1.600584 103 99 87
-0.192322 -0.440113 1.357277 103 99 87
-0.189081 -0.442428 1.355778 103 99 87
-0.185839 -0.444742 1.354279 104 100 88
-0.174033 -0.476101 1.594037 106 102 90
-0.170493 -0.478628 1.592401 108 104 92
-0.166953 -0.481156 1.590764 109 105 93
-0.059362 -0.810190 4.238404 112 106 92
-0.072056 -0.755269 3.753839 129 123 109
-0.055777 -0.789821 3.991529 140 134 120
0.298136 -1.776228 11.674835 161 155 141
0.259449 -1.633963 10.466638 184 178 164
0.362395 -1.822112 11.645124 181 175 161
0.377322 -1.672274 9.921705 76 68 57
-0.035623 -0.689572 2.756127 95 87 76
-0.016063 -0.726466 2.992301 102 94 83
0.877152 -1.272550 1.598453 153 152 147
2.549631 -2.925336 5.729516 173 172 167
2.727162 -3.097958 6.137868 199 198 193
2.737859 -3.105596 6.132922 229 228 223
0.813223 -1.203974 1.382794 234 233 229
0.817061 -1.206715 1.381020 173 174 169
0.820899 -1.209455 1.379245 100 102 97
-0.193018 -0.434397 1.359029 103 99 87
-0.189777 -0.436712 1.357530 103 99 87
-0.186535 -0.439027 1.356031 105 101 90
-0.174793 -0.469859 1.595951 106 102 90
-0.171253 -0.472387 1.594314 106 102 90
0.023324 -1.082730 6.656667 107 103 91
-0.164174 -0.477442 1.591041 109 105 93
-0.063699 -0.773664 3.998070 116 112 100
