ply
format ascii 1.0
element vertex 1206
property float x
property float y
property float z
property uchar red
property uchar green
property uchar blue
end_header
-1.526194 0.968925 5.949389 228 225 216
-0.903062 0.431641 2.669365 227 224 215
-0.853676 0.392940 2.435101 226 223 214
-0.962874 0.506459 3.138082 226 223 214
-1.456525 0.964304 5.949728 223 220 211
-1.064985 0.619507 3.841097 213 210 201
-1.502751 1.038220 6.418512 210 207 200
-1.048849 0.618436 3.841176 210 206 197
-1.318981 0.884330 5.481390 211 208 199
-1.297333 0.882894 5.481495 198 195 186
-1.247947 0.844193 5.247231 168 165 156
-1.237516 0.843501 5.247282 126 126 118
-1.227086 0.842809 5.247333 106 106 98
-0.725394 0.349006 2.201221 113 113 105
-0.610302 0.235096 1.498269 136 136 126
-0.678570 0.310475 1.966945 162 162 152
-0.673651 0.310148 1.966969 182 182 172
-0.597908 0.234274 1.498329 198 198 190
-1.154072 0.837966 5.247688 212 212 204
-0.728145 0.384613 2.435712 213 213 205
-0.585515 0.233452 1.498390 215 215 205
-1.313012 1.061059 6.653940 214 214 206
-1.168020 0.909741 5.716629 212 212 204
-0.830240 0.533085 3.373232 211 211 203
-1.081059 0.833123 5.248044 213 212 207
-0.619547 0.306559 1.967232 213 212 207
-1.346213 1.204961 7.591795 214 211 206
-0.574498 0.268146 1.732948 215 212 205
-0.569973 0.267846 1.732970 211 208 201
-0.565448 0.267546 1.732992 206 203 196
-0.735600 0.491382 3.139188 201 198 191
-0.728713 0.490925 3.139222 205 202 195
-1.090056 0.975419 6.186017 219 216 209
-0.983431 0.862071 5.483023 238 235 228
-0.972607 0.861353 5.483076 234 231 224
-0.854781 0.711838 4.545633 233 230 223
-0.950959 0.859917 5.483181 238 235 228
-0.494630 0.227423 1.498832 234 231 224
0.998360 1.722507 12.058789 193 191 178
0.075464 0.189606 1.501608 193 189 177
0.487782 0.658204 4.786674 193 189 177
0.638061 0.789935 5.725422 189 187 174
0.672669 0.752214 5.491087 187 185 172
-2.143237 0.985455 5.709548 151 146 46
-3.937859 2.071420 12.030212 155 150 50
-1.921334 0.863300 5.007361 155 149 53
-1.911297 0.862634 5.007410 156 150 56
-1.901260 0.861968 5.007459 164 157 87
-1.891223 0.861302 5.007508 181 175 123
-1.881186 0.860637 5.007557 200 194 160
-1.871150 0.859971 5.007606 228 221 203
-1.861113 0.859305 5.007654 213 209 197
-3.508142 1.899667 11.094615 174 172 159
-3.424529 1.858309 10.860600 134 135 121
-3.278758 1.777016 10.392465 123 123 111
-3.322218 1.815710 10.626676 120 118 106
-3.240573 1.774483 10.392651 116 114 102
-3.036187 1.653489 9.690379 120 118 106
-1.902773 0.933692 5.476296 118 115 106
-1.589031 0.733821 4.305712 121 118 111
-1.580176 0.733234 4.305755 112 109 102
-1.511524 0.692868 4.071667 104 101 94
-2.394099 1.288590 7.583705 89 86 79
-2.320723 1.247911 7.349640 65 62 55
-2.248134 1.207284 7.115571 49 49 41
-3.166095 1.841166 10.861858 50 50 42
-1.353559 0.610766 3.603592 61 62 56
-1.862790 0.966852 5.710913 98 99 93
-1.281170 0.570152 3.369522 170 172 167
-1.783707 0.925794 5.476876 227 229 224
-1.772883 0.925076 5.476929 227 229 224
-1.259327 0.568703 3.369628 230 231 225
-1.751235 0.923640 5.477034 232 231 226
-1.707938 0.920768 5.477245 234 231 224
-1.643617 0.880689 5.243136 224 224 214
-2.270424 1.352010 8.053151 175 173 161
-1.824308 1.071734 6.414367 228 225 216
-1.274590 0.677151 4.072821 228 225 216
-1.604778 0.949736 5.712169 227 224 215
-1.201613 0.636498 3.838754 228 225 216
-0.957557 0.441250 2.667831 227 224 215
-1.466299 0.868927 5.243999 228 225 216
-1.270228 0.712673 4.307264 229 226 217
-0.893242 0.401172 2.433722 229 226 217
-1.617498 1.022204 6.180952 228 225 216
-1.107975 0.594475 3.604788 227 224 215
-0.825977 0.360898 2.199627 227 224 215
-1.033623 0.553731 3.370727 227 224 215
-1.147661 0.668731 4.073439 228 225 216
-1.054253 0.590911 3.605049 228 225 216
-1.467371 0.976433 5.947261 228 225 216
-1.414074 0.937086 5.713098 226 223 214
-0.948646 0.512282 3.136719 219 216 207
-0.982657 0.550350 3.370975 214 211 202
-1.339916 0.896355 5.479037 213 209 200
-0.835564 0.433157 2.668425 209 206 197
-0.985183 0.586329 3.605385 208 205 196
-0.669221 0.278876 1.731545 210 207 198
-0.855407 0.470285 2.902750 198 198 188
-0.848914 0.469855 2.902782 168 168 158
-1.215968 0.852321 5.245218 127 127 117
-1.195107 0.850937 5.245319 100 100 90
-0.678246 0.315286 1.965924 107 107 97
-0.673327 0.314960 1.965948 109 109 99
-0.597636 0.238315 1.497472 142 142 132
-1.153385 0.848170 5.245523 168 168 158
-0.727769 0.390195 2.434527 191 191 181
-1.098319 0.808705 5.011368 208 208 198
-0.851603 0.541657 3.371614 214 214 204
-0.844322 0.541174 3.371649 215 215 205
-1.035185 0.768705 4.777253 214 214 206
-0.587774 0.273473 1.731942 210 209 204
-0.578724 0.272873 1.731986 216 213 206
-0.574200 0.272572 1.732008 212 209 202
-0.569675 0.272272 1.732030 190 187 180
-0.565150 0.271972 1.732052 139 136 129
-0.589712 0.309413 1.966355 138 135 128
-0.785645 0.573093 3.606357 181 178 171
-0.608174 0.346450 2.200687 213 210 203
-1.077259 0.986367 6.183582 226 223 216
-0.625062 0.383382 2.435027 237 234 227
-0.783798 0.644594 4.075211 232 229 222
-0.545445 0.306477 1.966570 230 227 220
0.167709 0.474040 3.376576 193 191 178
0.218393 0.542302 3.845668 194 192 179
0.507442 0.881246 6.191298 194 190 178
0.114291 0.298525 2.204205 194 192 179
0.119604 0.298173 2.204231 193 191 178
0.203013 0.400075 2.907904 191 189 176
0.209507 0.399644 2.907935 194 192 179
1.074237 1.488260 10.413659 194 192 179
0.766659 1.007298 7.130249 189 185 173
0.477734 0.632534 4.550197 197 193 181
1.240253 1.405623 9.945623 187 185 172
0.215224 0.291830 2.204696 188 186 173
-2.018427 0.915801 5.239142 151 145 51
-1.940746 0.874450 5.005180 152 146 52
-1.930709 0.873784 5.005228 150 143 53
-1.920672 0.873118 5.005277 157 149 68
-1.910635 0.872452 5.005326 168 160 85
-1.900599 0.871787 5.005375 180 170 117
-1.825280 0.830592 4.771401 192 184 145
-3.567625 1.923534 11.090109 220 213 187
-3.547352 1.922189 11.090208 214 207 191
-3.527079 1.920844 11.090307 170 166 154
-3.761635 2.081198 12.026527 144 142 129
-3.739787 2.079749 12.026633 130 130 118
-3.529179 1.957182 11.324637 128 128 118
-3.383460 1.875119 10.856666 126 123 114
-3.301448 1.833480 10.622725 123 120 111
-3.158484 1.751599 10.154740 121 118 109
-3.017096 1.669822 9.686747 119 116 107
-2.938233 1.628392 9.452791 117 114 107
-2.799601 1.546799 8.984785 108 105 98
-2.662543 1.465310 8.516771 103 100 93
-3.124763 1.785561 10.389244 77 74 67
-2.393152 1.302645 7.580721 54 53 48
-2.319802 1.261581 7.346738 48 47 42
-1.360728 0.618782 3.601961 50 51 45
-1.988872 1.058635 6.176647 78 79 73
-1.287971 0.577757 3.367975 145 146 140
-1.907847 1.017062 5.942701 223 224 218
-1.782994 0.936383 5.474628 225 226 220
-1.266128 0.576308 3.368081 229 230 224
-1.761346 0.934946 5.474734 231 231 223
-1.196127 0.535466 3.134082 234 231 222
-1.684652 0.893660 5.240767 235 232 223
-1.229724 0.573893 3.368258 236 233 224
-1.707225 0.931356 5.474997 232 229 220
-1.642930 0.890893 5.240970 208 208 196
-2.004040 1.168238 6.879595 131 128 119
-1.411335 0.730735 4.304736 194 191 182
-1.012052 0.450858 2.666297 228 225 218
-1.710450 1.003968 5.943662 228 225 218
-1.420271 0.803725 4.773373 227 224 215
-1.448944 0.841826 5.007574 227 224 215
-1.438907 0.841160 5.007623 226 223 214
-0.815641 0.329233 1.964232 225 222 213
-1.652723 1.036337 6.178284 225 222 213
-1.269645 0.721336 4.305426 227 224 215
-1.260789 0.720749 4.305469 227 224 215
-1.234222 0.718986 4.305598 227 224 215
-1.225367 0.718399 4.305641 228 225 216
-1.774821 1.225430 7.349392 227 224 215
-1.890551 1.341703 8.051849 226 223 214
-1.875396 1.340697 8.051923 229 226 217
-1.053747 0.598419 3.603456 228 225 216
-0.961966 0.519933 3.135222 228 225 216
-0.955079 0.519476 3.135255 227 224 215
-0.824394 0.402211 2.432870 222 219 210
-1.390899 0.946572 5.710878 216 213 204
-1.339203 0.906944 5.476789 212 208 199
-0.887446 0.478791 2.901244 212 208 199
-0.880953 0.478360 2.901276 210 208 196
-0.874459 0.477930 2.901307 209 207 195
-1.274258 0.902635 5.477105 211 211 201
-0.618020 0.243727 1.496513 206 204 192
-1.204850 0.861833 5.243103 178 176 164
-1.157878 0.822518 5.008991 133 131 119
-0.786365 0.435887 2.667396 106 103 94
-0.780265 0.435483 2.667425 97 94 85
-1.233849 0.936154 5.711642 99 96 87
-1.222631 0.935409 5.711697 103 100 91
-0.865684 0.549745 3.370031 114 111 102
-0.584971 0.241534 1.496674 143 143 135
-1.155192 0.894737 5.477685 177 177 169
-1.177759 0.932433 5.711916 199 199 191
-1.133543 0.893301 5.477790 210 210 202
-1.122719 0.892583 5.477843 215 215 207
-1.079684 0.853530 5.243712 209 209 201
-1.718710 1.656091 10.161750 208 208 200
-0.582951 0.277599 1.731024 208 208 200
-0.578426 0.277299 1.731046 207 207 199
-0.573901 0.276999 1.731069 166 166 158
-0.569377 0.276699 1.731091 121 121 113
-0.771034 0.543466 3.370492 107 107 99
-0.589388 0.314225 1.965334 115 115 107
-0.584469 0.313899 1.965357 141 141 133
-0.607824 0.351646 2.199584 198 198 190
-0.741911 0.541534 3.370633 220 217 210
-0.569714 0.312920 1.965429 228 225 218
-0.483518 0.198606 1.262828 241 238 231
-0.639973 0.426176 2.668108 239 236 229
0.253524 0.620297 4.312842 192 190 177
0.262380 0.619709 4.312885 191 189 176
0.414315 0.790624 5.485327 190 186 174
0.046000 0.235878 1.734087 190 186 174
0.074615 0.270178 1.968566 193 189 177
0.299607 0.544843 3.844385 192 188 176
1.162212 1.645979 11.347478 192 188 176
0.498696 0.676431 4.782716 191 187 175
0.178389 0.299493 2.203412 189 185 173
1.209889 1.389425 9.707328 188 186 173
1.132616 1.249757 8.769590 185 183 170
1.115807 1.214673 8.535167 185 183 170
-1.950121 0.884934 5.003047 156 146 74
-1.940084 0.884268 5.003095 164 155 88
-1.863216 0.842584 4.769211 174 164 105
-1.853573 0.841944 4.769258 184 172 122
-1.843930 0.841304 4.769305 192 179 135
-1.834287 0.840665 4.769352 200 190 154
-1.824644 0.840025 4.769399 222 213 182
-1.815001 0.839385 4.769446 235 227 204
-2.127702 1.043056 5.939216 213 208 188
-2.422886 1.245564 7.109072 200 199 181
-3.738347 2.101122 12.022096 199 200 184
-3.590711 2.018157 11.554298 194 196 182
-3.444650 1.935297 11.086492 191 189 177
-3.300164 1.852542 10.618679 188 186 174
-3.157252 1.769890 10.150857 182 180 168
-3.077235 1.727997 9.916988 173 170 161
-2.937079 1.645529 9.449154 160 157 148
-2.859030 1.603766 9.215275 146 143 134
-2.781769 1.562055 8.981393 117 114 105
-2.765039 1.560945 8.981474 83 80 71
-2.570257 1.438268 8.279647 64 64 54
-2.495752 1.396740 8.045751 54 55 47
-2.422033 1.355264 7.811851 54 55 47
-1.302052 0.585846 3.366392 64 65 57
-1.294772 0.585363 3.366428 108 109 103
-1.861311 0.988799 5.706255 192 193 187
-1.850093 0.988055 5.706309 226 225 220
-1.272929 0.583914 3.366534 227 226 221
-1.771457 0.946253 5.472434 233 230 223
-1.195673 0.542203 3.132651 235 232 223
-1.673534 0.903172 5.238652 235 232 223
-1.934265 1.103395 6.408675 232 229 220
-2.244898 1.343514 7.812714 231 228 219
-3.138701 2.024758 11.790757 221 221 211
-2.003171 1.181137 6.876857 215 212 203
-1.094806 0.498927 2.898884 231 228 219
-1.721296 1.016097 5.941195 228 225 220
-1.709684 1.015327 5.941251 228 225 220
-1.517077 0.892793 5.239414 229 226 217
-1.409993 0.812519 4.771418 228 225 216
-1.448283 0.851644 5.005490 228 225 216
-1.343167 0.771501 4.537485 228 225 216
-1.381064 0.810600 4.771559 227 224 215
-1.277917 0.730587 4.303544 227 224 215
-1.269061 0.729999 4.303587 228 225 216
-1.030383 0.531239 3.133456 228 225 216
-2.253906 1.600210 9.452480 228 225 216
-2.010504 1.401137 8.282372 226 223 214
-1.323205 0.806762 4.771840 226 223 214
-1.224783 0.727062 4.303802 227 224 215
-1.303919 0.805483 4.771934 228 225 216
-0.989061 0.528498 3.133657 227 224 215
-2.062386 1.514335 8.984895 226 223 214
-1.874397 1.355523 8.048776 227 224 215
-1.944084 1.433316 8.516954 227 224 215
-0.751376 0.329803 1.963522 227 224 215
-0.954625 0.526213 3.133825 229 226 217
-2.226177 1.744713 10.389649 225 222 213
-2.043700 1.586266 9.453503 218 215 206
-1.945277 1.506566 8.985465 215 213 201
-1.848430 1.426971 8.517420 211 209 197
-1.792822 1.386697 8.283432 210 208 196
-0.906416 0.523016 3.134060 213 211 198
-0.861045 0.483420 2.900022 208 206 194
-0.854551 0.482990 2.900054 207 205 193
-1.056526 0.715901 4.304622 214 212 200
-0.682516 0.325236 1.963857 204 202 190
-0.677597 0.324909 1.963881 174 172 160
-0.672679 0.324583 1.963905 126 123 114
-0.667760 0.324257 1.963929 96 93 84
-0.662842 0.323930 1.963953 93 90 81
-1.141580 0.867885 5.241242 101 98 91
-1.165302 0.906044 5.475385 100 100 92
-1.120719 0.866501 5.241343 109 109 101
-1.110288 0.865809 5.241394 133 133 125
-1.099858 0.865117 5.241445 167 167 159
-1.056849 0.825679 5.007396 188 188 180
-1.046812 0.825013 5.007445 203 203 195
-1.036775 0.824347 5.007493 212 212 204
-0.587178 0.282326 1.730063 214 214 206
-0.582653 0.282026 1.730085 196 196 188
-0.578128 0.281725 1.730107 152 152 144
-0.573603 0.281425 1.730129 114 114 106
-0.688368 0.435380 2.666604 108 108 100
-0.535125 0.242287 1.496058 105 105 97
-0.530994 0.242013 1.496078 96 96 88
-0.670069 0.434166 2.666693 99 99 91
-1.002940 0.895274 5.476175 162 162 154
-0.602162 0.356491 2.198507 209 206 199
-0.981291 0.893838 5.476281 224 221 214
-0.943401 0.854739 5.242207 239 236 229
-0.719589 0.547208 3.369228 243 240 233
-0.475797 0.201766 1.262088 245 242 235
-0.601486 0.393031 2.432769 248 245 238
-0.595780 0.392653 2.432797 241 238 231
-1.016738 1.042531 6.413142 231 228 219
-0.485551 0.238999 1.496299 235 232 223
1.060239 1.673051 11.342684 193 189 177
0.159486 0.379138 2.670732 197 193 181
0.975088 1.495772 10.170977 191 189 176
1.163574 1.666196 11.343187 192 188 176
0.378087 0.620736 4.311606 186 182 170
0.849930 1.028462 7.125006 185 183 170
0.519777 0.611337 4.312296 182 180 167
-3.233718 1.682419 9.444066 184 171 126
-1.939423 0.894087 5.001011 200 187 152
-1.919349 0.892755 5.001109 223 211 187
-1.909312 0.892089 5.001158 222 210 188
-1.899276 0.891423 5.001207 216 205 183
-1.824009 0.849458 4.767397 203 195 172
-1.814366 0.848818 4.767444 191 185 163
-1.804722 0.848179 4.767491 189 184 165
-1.795079 0.847539 4.767538 178 175 156
-1.721781 0.805704 4.533718 174 176 155
-1.712532 0.805091 4.533763 170 173 154
-1.640414 0.763335 4.299937 172 175 158
-1.631559 0.762747 4.299980 180 181 163
-1.622703 0.762160 4.300023 188 190 169
-1.552160 0.720508 4.066190 193 194 176
-1.543698 0.719947 4.066231 195 196 178
-1.535237 0.719385 4.066273 203 204 186
-3.583971 2.112349 12.018304 208 207 189
-3.502011 2.069940 11.784527 198 197 179
-3.361120 1.986649 11.316859 184 183 165
-3.281128 1.944371 11.083072 163 166 149
-3.084062 1.820381 10.381502 133 137 122
-2.479598 1.410560 8.042678 113 117 103
-1.301573 0.592968 3.364880 97 99 88
-1.294292 0.592485 3.364916 134 135 127
-1.860572 0.999773 5.703925 220 219 214
-1.849354 0.999029 5.703980 230 227 222
-1.215881 0.550311 3.131121 236 233 228
-2.051618 1.160336 6.639702 239 236 229
-2.819763 1.728904 9.914435 236 233 226
-2.026033 1.158639 6.639826 235 232 225
-2.013240 1.157790 6.639889 235 232 225
-1.236045 0.588621 3.365199 231 228 221
-1.662416 0.912684 5.236537 232 229 222
-2.566801 1.601207 9.213137 231 228 221
-2.496259 1.559555 8.979304 229 226 219
-1.462799 0.788525 4.534979 228 225 218
-1.708919 1.026686 5.938840 228 225 218
-1.526820 0.903689 5.237197 229 226 219
-0.980750 0.460769 2.663912 230 227 218
-0.974650 0.460364 2.663942 229 226 217
-0.968551 0.459960 2.663972 228 225 216
-1.342558 0.780549 4.535564 228 225 216
-1.333308 0.779935 4.535609 228 225 216
-1.277333 0.739250 4.301705 228 225 216
-1.268478 0.738662 4.301748 229 226 217
-0.892114 0.417917 2.430167 229 226 217
-1.159677 0.657500 3.833924 229 226 217
-2.009479 1.416347 8.279144 227 224 215
-0.824926 0.376488 2.196318 225 222 213
-1.772979 1.252769 7.343588 227 224 215
-0.932044 0.494511 2.898326 226 223 214
-2.011094 1.527371 8.981666 226 223 214
-0.954171 0.532951 3.132395 229 226 217
-2.389774 1.922215 11.321589 228 225 216
-2.165006 1.722443 10.151800 222 219 210
-2.065454 1.641895 9.683931 216 214 202
-1.927445 1.521823 8.982073 213 211 199
-1.117932 0.728676 4.302481 213 211 199
-1.776249 1.400876 8.280279 209 207 194
-0.739930 0.370850 2.196731 208 206 193
-0.677273 0.329721 1.962860 212 210 198
-0.672355 0.329395 1.962884 205 203 191
-0.667436 0.329068 1.962908 182 179 170
-0.662518 0.328742 1.962932 136 133 124
-0.657599 0.328416 1.962956 98 95 86
-0.652681 0.328089 1.962980 95 95 87
-1.187498 0.955125 5.707202 96 96 88
-1.109601 0.876013 5.239228 97 97 89
-1.066224 0.836163 5.005263 106 106 96
-1.056188 0.835497 5.005312 123 123 113
-1.046151 0.834831 5.005361 144 144 134
-1.004349 0.795086 4.771387 153 153 143
-0.524137 0.208645 1.261075 144 144 134
-0.613332 0.325479 1.963171 123 123 113
-0.547246 0.247151 1.495140 110 110 100
-0.543115 0.246877 1.495160 106 106 96
-0.538984 0.246603 1.495180 97 97 87
-0.534853 0.246329 1.495200 97 97 87
-0.530722 0.246054 1.495220 92 92 82
-1.510215 1.605063 9.686634 114 114 104
-1.019230 0.943963 5.708022 185 185 175
-0.980578 0.904426 5.474033 216 216 206
-0.591187 0.360983 2.197456 227 227 219
-0.905636 0.825510 5.006045 233 230 223
-0.606816 0.398992 2.431556 245 242 235
-0.799129 0.707528 4.304033 241 238 231
-0.456864 0.204183 1.261403 235 233 221
-0.524799 0.319606 1.963602 226 224 212
-0.590371 0.434873 2.665813 233 231 219
0.152350 0.422577 2.903606 192 188 176
0.369033 0.740955 5.012251 189 185 173
0.543732 0.877256 5.949808 191 187 175
1.111928 1.615985 10.870284 188 184 172
0.397489 0.554206 3.841506 191 189 176
0.929750 1.147429 7.825101 186 184 171
-2.016365 0.946412 5.232644 218 208 183
-2.005934 0.945720 5.232695 193 182 164
-1.928724 0.903239 4.998976 145 136 119
-1.918688 0.902573 4.999025 112 105 87
-1.908651 0.901908 4.999074 73 66 48
-1.898614 0.901242 4.999123 65 57 44
-1.823373 0.858891 4.765394 55 47 36
-1.813730 0.858252 4.765441 55 49 37
-1.804087 0.857612 4.765488 52 48 36
-1.730421 0.815366 4.531752 43 41 28
-1.721171 0.814753 4.531797 36 37 23
-1.648686 0.772585 4.298055 36 38 25
-1.639831 0.771998 4.298098 38 42 28
-1.630975 0.771410 4.298142 50 53 34
-3.483759 2.015092 11.311964 59 62 43
-3.278109 1.889373 10.610681 62 65 46
-1.543141 0.728224 4.064474 79 82 65
-3.117391 1.803993 10.143274 99 100 84
-1.465737 0.685731 3.830756 114 115 99
-1.457669 0.685195 3.830796 137 138 122
-1.449601 0.684660 3.830835 166 167 151
-2.627506 1.509982 8.506996 179 182 163
-1.492369 0.724857 4.064722 184 188 171
-2.654133 1.549107 8.740961 186 190 175
-3.393325 2.083812 11.780594 175 177 166
-1.524707 0.764361 4.298659 199 200 192
-1.859833 1.010747 5.701596 226 225 220
-1.791678 0.968867 5.467833 234 231 226
-1.780854 0.968149 5.467886 238 233 229
-2.106924 1.213934 6.870867 239 236 229
-2.037982 1.172002 6.637108 236 233 226
-2.025190 1.171153 6.637170 233 230 223
-1.187878 0.555221 3.129825 231 228 221
-1.180991 0.554764 3.129858 231 228 221
-1.878450 1.086700 6.169695 230 227 220
-1.167217 0.553851 3.129926 228 225 218
-1.801047 1.044207 5.935977 226 223 216
-1.789435 1.043436 5.936034 225 222 215
-1.409584 0.756724 4.299219 227 224 217
-1.814444 1.456047 8.510954 211 209 196
-1.720850 1.375120 8.043221 210 208 195
-0.898621 0.536033 3.131233 208 206 193
-0.891734 0.535576 3.131267 207 205 192
-0.771913 0.415550 2.429566 207 205 192
-0.691705 0.335511 1.961767 206 204 191
-0.686786 0.335185 1.961791 204 202 189
-0.681868 0.334859 1.961815 204 202 189
-0.821228 0.493540 2.897515 207 205 193
-0.993116 0.691739 4.067152 214 212 200
-0.737677 0.413279 2.429733 213 211 199
-1.174700 0.927939 5.470837 177 175 163
-0.720559 0.412144 2.429816 139 139 129
-0.917098 0.649337 3.833428 101 101 91
-0.909030 0.648801 3.833467 95 95 85
-1.098483 0.885524 5.237113 93 93 83
-1.120579 0.924349 5.471100 100 100 90
-0.692029 0.410251 2.429955 106 106 96
-1.067192 0.883449 5.237266 107 107 97
-0.523891 0.212301 1.260299 107 107 97
-1.201089 1.079127 6.407088 96 96 86
-0.608090 0.329965 1.962174 101 101 91
-0.542843 0.250918 1.494302 94 94 84
-1.044810 0.919323 5.471469 94 94 84
-0.907229 0.760760 4.535760 89 89 79
-0.869390 0.720890 4.301850 86 86 76
-1.029709 0.955681 5.705638 85 85 75
-0.796075 0.641309 3.834017 148 148 138
-0.486517 0.209822 1.260481 208 208 198
-0.942026 0.875146 5.237875 215 215 207
-0.558904 0.326702 1.962413 234 234 226
-0.475304 0.209078 1.260536 238 235 228
-1.231020 1.379986 8.279700 235 232 225
0.317385 0.716884 4.775817 190 188 175
0.620735 1.182432 7.820526 193 191 178
0.357680 0.564774 3.839634 189 185 173
0.263166 0.421607 2.902795 186 182 170
-2.015677 0.956616 5.230479 63 57 41
-2.005247 0.955924 5.230529 46 40 26
-1.994816 0.955232 5.230580 55 51 39
-1.918026 0.912392 4.996941 59 57 42
-1.907990 0.911726 4.996990 41 39 26
-1.683525 0.783598 4.296044 62 59 52
-3.348835 1.875465 10.372272 60 60 52
-3.329743 1.874199 10.372365 31 32 24
-2.722670 1.494214 8.269204 33 36 29
-2.644305 1.451269 8.035573 37 40 33
-3.315797 1.911020 10.606445 42 45 36
-3.296311 1.909727 10.606540 30 33 24
-3.215190 1.866600 10.372922 25 28 19
-3.502305 2.074376 11.541589 25 28 21
-3.359549 1.989414 11.074258 24 25 19
-2.734737 1.570506 8.737171 30 31 25
-2.598280 1.485962 8.269810 40 41 33
-1.449069 0.692553 3.829160 50 51 43
-2.626456 1.525577 8.503686 70 72 58
-2.492755 1.441216 8.036311 83 85 71
-3.530336 2.189474 12.243491 126 128 115
-3.391911 2.104799 11.776139 171 173 162
-1.870311 1.022465 5.699212 219 220 212
-1.859093 1.021721 5.699267 229 229 221
-1.790965 0.979455 5.465585 235 230 224
-2.458342 1.476679 8.270491 239 232 226
-2.106055 1.226834 6.868129 235 232 225
-2.037139 1.184516 6.634451 233 230 223
-2.688374 1.680669 9.439436 232 229 222
-2.560973 1.596726 8.972030 231 228 221
-1.889665 1.099241 6.167144 229 226 219
-2.635823 1.677183 9.439692 229 226 219
-2.080697 1.262898 7.102265 229 226 219
-1.586813 0.890421 4.998554 228 225 218
-1.576776 0.889755 4.998603 228 225 218
-1.303841 0.682919 3.829867 228 225 218
-2.244522 1.915449 11.079687 213 211 198
-0.898167 0.542770 3.129803 207 205 192
-0.997249 0.662581 3.831360 206 204 191
-0.754419 0.419997 2.428464 206 204 191
-1.181239 0.901263 5.234541 206 204 191
-0.814307 0.499461 2.896199 209 207 194
-0.932703 0.658300 3.831674 215 213 200
-0.686108 0.377719 2.194784 207 207 195
-1.219701 1.017053 5.936393 184 184 172
-1.108226 0.896420 5.234897 139 139 127
-0.867536 0.616231 3.597978 107 107 95
-0.859862 0.615722 3.598016 89 89 77
-0.590808 0.295905 1.727222 97 97 85
-0.617603 0.335429 1.961105 99 99 87
-0.550833 0.255507 1.493404 96 96 86
-0.546702 0.255233 1.493424 95 95 85
-1.115197 1.010121 5.936901 91 91 81
-1.103585 1.009350 5.936958 87 87 77
-1.062623 0.968887 5.703145 82 82 72
-0.486270 0.213478 1.259705 185 185 175
-0.617476 0.410912 2.429131 214 214 204
-0.478795 0.212982 1.259742 222 222 214
-0.999081 1.002418 5.937467 242 239 232
-1.125019 1.274995 7.574944 240 238 226
-0.452634 0.211247 1.259869 233 231 219
-0.777129 0.761218 4.534470 230 228 216
-1.948097 1.038648 5.696500 34 36 31
-2.477187 1.416942 7.799304 29 31 26
-2.402785 1.373873 7.565735 26 28 23
-3.454860 2.130057 11.771371 31 32 24
-1.903226 1.035671 5.696719 31 32 24
-1.892008 1.034927 5.696774 80 81 73
-1.880790 1.034183 5.696828 177 178 172
-1.869572 1.033439 5.696883 230 231 225
-1.629241 0.864965 4.762329 232 229 222
-1.790252 0.990044 5.463338 238 234 225
-1.214519 0.570523 3.126831 238 231 223
-1.824700 1.030462 5.697101 235 231 222
-1.757779 0.987890 5.463496 232 232 222
-2.687220 1.697805 9.435798 230 230 220
-2.559871 1.613092 8.968556 228 228 218
-2.488618 1.570232 8.734972 228 225 216
-2.580540 1.652596 9.202387 229 226 217
-2.509681 1.609762 8.968801 230 227 218
-1.159422 0.566868 3.127099 232 228 219
-2.423274 1.565897 8.735290 231 228 221
-1.671186 0.982146 5.463918 229 226 219
-2.282354 1.976012 11.309218 212 210 197
-2.106591 1.811821 10.374349 209 207 194
-0.820953 0.468150 2.660885 207 205 192
-0.814853 0.467745 2.660915 208 206 193
-0.658382 0.304834 1.725952 206 204 191
-0.653857 0.304534 1.725974 206 204 192
-0.796554 0.466531 2.661004 208 206 194
-0.754043 0.425578 2.427280 208 206 193
-0.583609 0.261741 1.492385 204 205 191
-1.185280 0.988046 5.700214 203 204 190
-1.174063 0.987302 5.700269 206 206 194
-1.129976 0.946245 5.466553 186 186 174
-1.119152 0.945527 5.466605 156 156 144
-1.076247 0.904548 5.232883 112 112 100
-1.065817 0.903856 5.232934 92 92 80
-1.278573 1.223033 7.103346 88 88 76
-1.518880 1.582170 9.207556 85 85 75
-1.443107 1.500878 8.740063 84 84 74
-1.397840 1.459742 8.506352 89 89 79
-0.696998 0.498060 2.895419 105 105 95
-0.704875 0.536716 3.129312 201 201 191
-0.590137 0.376573 2.194147 209 209 199
-0.505118 0.256534 1.492767 219 219 211
-0.474812 0.216391 1.258984 237 234 227
-1.013469 1.091048 6.402844 233 230 223
-0.940258 1.009926 5.935338 236 234 222
-0.452387 0.214903 1.259093 232 230 218
-1.947358 1.049622 5.694171 32 32 30
-2.296190 1.303881 7.095568 26 28 25
-1.617600 0.835148 4.526531 27 29 24
-1.902486 1.046645 5.694390 44 46 41
-1.891268 1.045901 5.694444 108 108 106
-1.938090 1.087527 5.928065 207 206 204
-1.868833 1.044413 5.694553 231 230 228
-2.544642 1.551481 8.497453 233 230 225
-1.891644 1.084446 5.928292 233 231 219
-1.880032 1.083675 5.928348 232 230 218
-1.757066 0.998479 5.461248 230 228 216
-1.746242 0.997761 5.461301 230 228 216
-1.680527 0.954882 5.227772 229 227 215
-2.487542 1.586213 8.731580 228 226 214
-1.713769 0.995607 5.461459 228 226 214
-1.756654 1.036971 5.695100 228 226 214
-2.491849 1.625018 8.965408 230 228 216
-1.681296 0.993453 5.461617 232 230 218
-1.828056 1.118747 6.162450 229 226 217
-1.341592 1.009438 5.697121 214 212 200
-1.252878 0.926514 5.229854 212 210 197
-0.705488 0.350925 1.958631 208 206 193
-0.890372 0.555788 3.126977 205 203 190
-0.653559 0.308960 1.725035 202 200 187
-0.722593 0.390579 2.192397 204 202 189
-0.717281 0.390227 2.192423 208 206 193
-2.187640 2.067077 11.773079 210 208 195
-1.596613 1.411554 8.034370 209 207 194
-2.144732 2.064231 11.773288 208 206 193
-1.129263 0.956833 5.464305 210 208 195
-1.118439 0.956115 5.464358 209 207 194
-1.075560 0.914751 5.230717 200 198 185
-1.065129 0.914059 5.230768 179 177 164
-0.648222 0.385646 2.192759 158 156 143
-1.013395 0.872108 4.997171 140 138 125
-0.698557 0.466024 2.660212 135 133 120
-0.542026 0.263042 1.491729 165 163 150
-1.161440 1.113047 6.399545 194 192 180
-1.149041 1.112225 6.399605 211 209 197
-0.847590 0.707030 4.062582 211 209 197
-0.839128 0.706468 4.062623 206 203 194
-0.830666 0.705907 4.062664 206 203 194
-0.489515 0.221038 1.258135 205 202 193
-0.485778 0.220791 1.258153 210 207 198
-0.956076 0.945345 5.465148 207 204 197
-0.919103 0.904373 5.231479 224 221 214
-0.651117 0.501397 2.894292 246 243 238
-1.012652 1.103177 6.400270 241 238 233
-0.680786 0.580405 3.361846 235 232 223
-1.403234 0.674390 3.590582 33 33 31
-2.895118 1.746022 9.427500 25 27 24
-1.983771 1.101967 5.925428 26 28 25
-1.912965 1.058363 5.692006 27 29 26
-1.901747 1.057619 5.692060 64 66 63
-1.948937 1.099656 5.925598 158 158 156
-1.531229 0.799600 4.291261 224 223 221
-1.868093 1.055387 5.692224 231 227 226
-2.600818 1.609779 8.727631 233 230 225
-2.129821 1.267282 6.859786 235 232 223
-1.382928 0.711949 3.824448 233 231 219
-1.823222 1.052410 5.692443 230 228 216
-1.812004 1.051666 5.692497 229 227 215
-2.463880 1.561789 8.494531 228 226 214
-2.063889 1.262908 6.860107 227 225 213
-2.105173 1.304554 7.093674 228 226 214
-2.037516 1.261159 6.860236 228 226 214
-2.561159 1.684962 9.195359 228 226 214
-2.490746 1.641384 8.961935 228 226 214
-1.839270 1.131288 6.159899 230 228 216
-1.564755 0.918544 4.992399 230 228 216
-0.871464 0.522395 2.891869 213 211 199
-1.368357 1.061143 5.928425 213 211 199
-1.241760 0.936025 5.227739 213 211 198
-0.814049 0.479679 2.658381 212 210 197
-2.176295 2.009592 11.301138 204 202 189
-0.722243 0.395776 2.191294 206 204 191
-0.716931 0.395423 2.191320 210 208 195
-2.002603 1.920257 10.834449 212 210 197
-0.719055 0.434471 2.425077 209 207 194
-0.679745 0.392957 2.191501 208 206 193
-0.674433 0.392604 2.191527 204 202 189
-0.616630 0.349863 1.958041 220 218 205
-0.731515 0.552018 3.126318 223 221 209
-0.724628 0.551561 3.126351 216 213 204
-1.026751 0.999576 5.696320 211 208 199
-0.489269 0.224695 1.257359 217 214 205
-0.949707 0.916652 5.229161 219 216 207
-0.804723 0.712501 4.061031 217 214 205
-0.584125 0.386614 2.191966 207 204 197
-1.649868 2.052485 11.771236 222 219 212
-0.496311 0.264068 1.491092 236 233 226
-0.463107 0.222959 1.257486 250 247 242
-0.508466 0.303781 1.724800 248 245 238
-1.180275 1.437734 8.267013 232 229 220
-1.164726 1.436703 8.267089 230 227 218
-1.402728 0.681897 3.588988 29 29 27
-2.594182 1.546804 8.256896 28 30 27
-1.983006 1.113326 5.923017 28 30 27
-1.734719 0.939681 4.989484 35 37 34
-1.901008 1.068593 5.689731 96 96 94
-1.948171 1.111015 5.923187 200 199 195
-1.878572 1.067105 5.689840 235 234 230
-2.656942 1.668848 8.957646 232 229 222
-2.072145 1.237120 6.623639 231 228 219
-2.002939 1.193235 6.390291 229 226 217
-2.550733 1.622509 8.724478 229 227 215
-1.143758 0.546838 2.889193 229 227 215
-2.849452 1.878086 10.125136 228 226 214
-1.788829 1.061151 5.690277 227 225 213
-2.104278 1.317838 7.090854 227 225 213
-1.766393 1.059663 5.690386 227 225 213
-2.560031 1.701713 9.191803 228 226 214
-2.489644 1.657750 8.958461 228 226 214
-1.891348 1.185833 6.390834 228 226 214
-1.878949 1.185010 6.390895 228 226 214
-1.496472 1.198932 6.626442 218 216 204
-1.444983 1.156223 6.393008 214 212 200
-0.743142 0.402382 2.190087 211 209 196
-0.851556 0.527454 2.890616 209 207 194
-1.257727 0.986627 5.459178 207 205 192
-0.832076 0.526162 2.890711 205 203 190
-0.634863 0.316612 1.723244 212 210 197
-0.586924 0.274139 1.489792 210 208 195
-1.753886 1.726824 9.663099 210 208 195
-2.034632 2.099090 11.764901 206 204 191
-0.695855 0.438539 2.424003 209 207 194
-0.626143 0.355327 1.956972 208 206 193
-0.621224 0.355001 1.956996 207 205 192
-1.677636 1.761060 9.897156 214 212 199
-1.659331 1.759846 9.897245 221 219 206
-1.827488 2.124643 11.999595 226 224 212
-1.435665 1.587834 8.963592 215 213 201
-1.026012 1.010550 5.693991 214 211 202
-1.678927 1.996907 11.299262 219 216 207
-0.512564 0.269206 1.490154 223 220 211
-0.911704 0.885087 4.993492 228 225 216
-0.504301 0.268658 1.490194 214 211 202
-0.526268 0.309408 1.723772 205 202 195
-0.496039 0.268110 1.490234 227 224 217
-0.491908 0.267836 1.490254 245 242 235
-0.997556 1.165837 6.628871 230 227 218
-3.332595 2.087230 11.053309 29 29 27
-1.922704 1.081055 5.687292 26 26 24
-1.911486 1.080311 5.687347 62 64 61
-1.959018 1.123144 5.920719 136 137 132
-1.947406 1.122374 5.920776 222 221 217
-1.877833 1.078078 5.687511 224 221 216
-3.399107 2.250364 11.987399 231 228 219
-3.320479 2.205468 11.754179 231 228 219
-1.269091 0.640893 3.354440 230 227 220
-1.821743 1.074358 5.687784 228 226 214
-2.922518 1.940987 10.354495 228 226 214
-2.848220 1.896378 10.121253 227 225 213
-1.788089 1.072125 5.687948 227 225 213
-2.827057 1.934654 10.354960 227 225 213
-2.754728 1.890176 10.121709 227 225 213
-2.788873 1.932121 10.355146 228 226 214
-1.091383 0.549744 2.888098 227 225 213
-1.378438 1.084631 5.923546 218 215 206
-0.748104 0.407931 2.188958 214 212 200
-0.742792 0.407579 2.188984 212 210 198
-0.851128 0.533807 2.889267 211 209 196
-1.219524 0.955049 5.223509 208 206 193
-1.320380 1.080780 5.923829 204 202 189
-1.308768 1.080010 5.923885 204 202 189
-0.643615 0.321639 1.722260 205 203 190
-1.771219 1.666213 9.192083 207 205 192
-0.735421 0.446770 2.422624 209 207 194
-0.729715 0.446392 2.422652 210 208 195
-0.758348 0.487972 2.656116 208 206 193
-2.121776 2.205313 12.227222 210 208 195
-1.019187 0.862398 4.757277 203 201 188
-0.689773 0.443742 2.422846 205 203 190
-0.557734 0.276262 1.489075 207 205 192
-0.678361 0.442985 2.422902 208 206 193
-0.888227 0.734670 4.057104 222 220 207
-0.514938 0.233742 1.255680 224 222 209
-1.681532 1.858666 10.360537 223 221 208
-1.351137 1.439945 8.026111 223 221 209
-0.524685 0.274069 1.489236 224 222 210
-0.520554 0.273795 1.489256 220 218 206
-0.516422 0.273521 1.489276 217 214 205
-0.730312 0.605153 3.357063 223 220 211
-0.504029 0.272699 1.489336 225 222 213
-0.969183 1.017803 5.691935 211 208 201
-0.495767 0.272151 1.489376 214 211 204
-0.491636 0.271877 1.489397 235 232 225
-0.487505 0.271603 1.489417 246 243 236
-0.599757 0.477451 2.656888 248 245 238
-0.901876 1.013338 5.692263 233 230 221
-0.774081 0.806459 4.524867 226 223 214
-2.667979 1.622323 8.483591 26 26 24
-1.993087 1.136814 5.918139 26 26 24
-1.921965 1.092029 5.684963 36 36 34
-1.910747 1.091285 5.685018 88 88 86
-1.958252 1.134503 5.918308 186 187 182
-1.654993 0.914050 4.752176 224 223 218
-3.209620 2.098994 11.049692 229 226 219
-1.865875 1.088308 5.685236 231 228 219
-3.397668 2.271737 11.982863 230 227 218
-1.389401 0.736163 3.819383 228 225 216
-1.437694 0.779434 4.052669 227 224 217
-1.429232 0.778872 4.052711 227 224 215
-1.809786 1.084587 5.685509 227 225 213
-1.798568 1.083843 5.685564 227 225 213
-1.513419 0.864591 4.519344 227 225 213
-2.952889 2.041896 10.817420 227 225 213
-1.271250 0.688258 3.586437 226 224 212
-1.529633 0.905734 4.752787 225 223 211
-1.995349 1.297233 6.852214 226 224 212
-1.331758 1.173079 6.388402 209 207 194
-1.319359 1.172257 6.388462 207 205 192
-0.723633 0.451595 2.421495 210 208 195
-0.645169 0.366255 1.954833 211 209 196
-1.269763 1.168967 6.388704 214 212 199
-0.635332 0.365603 1.954881 209 207 194
-0.689397 0.449324 2.421661 208 206 193
-0.936150 0.786231 4.288633 215 213 200
-1.133829 1.079815 5.922322 209 207 194
-0.666573 0.447810 2.421772 226 224 211
-1.779538 2.044197 11.290176 224 222 210
-0.931764 0.866075 4.755698 220 218 206
-1.177790 1.243001 6.856195 226 224 212
-1.388716 1.577531 8.723341 225 223 211
-1.013316 1.031754 5.689387 218 215 206
-0.512019 0.277288 1.488438 227 224 215
-0.530196 0.318561 1.721871 238 235 226
-0.890308 0.903392 4.989421 214 211 204
-0.546798 0.359730 1.955312 207 204 197
-0.491363 0.275918 1.488539 227 224 217
-0.487232 0.275644 1.488559 254 251 244
-0.478970 0.275096 1.488599 242 239 232
-0.451156 0.233184 1.255213 236 233 224
-2.003934 1.148943 5.915671 27 27 25
-1.992322 1.148173 5.915728 52 51 49
-1.980710 1.147403 5.915784 97 96 94
-1.969099 1.146633 5.915841 189 190 185
-1.957487 1.145862 5.915897 229 228 224
-1.945876 1.145092 5.915954 228 228 220
-2.440299 1.541977 8.014504 228 225 216
-1.853918 1.098538 5.682962 229 226 217
-2.580176 1.672619 8.714143 229 226 217
-1.437136 0.787711 4.050912 229 226 219
-1.204909 0.610490 3.118284 227 224 215
-3.308836 2.287313 11.978752 227 225 213
-2.827057 1.931721 10.113579 227 225 213
-2.951579 2.061343 10.813292 227 225 213
-1.270745 0.695765 3.584843 226 224 212
-1.981294 1.309258 6.849540 226 224 212
-0.606820 0.328090 1.720557 210 208 195
-0.635008 0.370414 1.953860 208 206 193
-0.630089 0.370088 1.953884 205 203 190
-0.752871 0.540050 2.887045 207 205 192
-1.534664 1.603265 8.719233 215 213 200
-0.646471 0.411629 2.187244 214 212 199
-0.641159 0.411277 2.187270 208 206 193
-0.575146 0.325989 1.720712 204 202 190
-0.570621 0.325689 1.720734 229 227 215
-0.920851 0.834372 4.520306 227 224 215
-0.940771 0.876148 4.753648 214 211 202
-1.075006 1.087323 5.920194 216 213 204
-0.807958 0.705521 3.820536 225 223 211
-0.984982 1.000443 5.453752 224 221 212
-0.511747 0.281330 1.487580 228 225 216
-0.829299 0.787845 4.287312 235 232 223
-0.503485 0.280782 1.487621 238 235 226
-0.525373 0.322688 1.720954 242 239 230
-0.956487 1.039007 5.687331 217 214 207
-0.491091 0.279959 1.487681 215 212 205
-0.486960 0.279685 1.487701 238 235 228
-1.338393 1.752062 9.653948 253 250 245
-0.454647 0.237088 1.254419 241 238 231
-1.289619 1.789280 9.887625 231 229 217
-2.063415 1.205140 6.146324 72 72 70
-2.051409 1.204343 6.146383 159 158 156
-2.039404 1.203547 6.146441 229 228 226
-2.027399 1.202751 6.146500 226 227 222
-1.956722 1.157221 5.913486 226 225 220
-2.760999 1.782348 9.176581 228 227 222
-1.806907 1.065601 5.447500 229 226 219
-1.796082 1.064883 5.447552 229 226 219
-1.155033 0.573108 2.883737 228 225 216
-1.204455 0.617227 3.116854 227 225 213
-1.752786 1.062011 5.447763 227 225 213
-1.741961 1.061293 5.447816 226 224 212
-1.457465 0.838216 4.282412 227 225 213
-2.807126 1.948772 10.109788 228 226 214
-1.116072 0.570523 2.883926 227 225 213
-1.056026 0.525699 2.650861 227 225 213
-1.980425 1.322158 6.846802 225 223 211
-0.688645 0.460488 2.419292 209 207 194
-0.682939 0.460109 2.419319 206 204 191
-0.635497 0.416121 2.186192 214 212 200
-0.630184 0.415769 2.186218 232 229 220
-1.056709 1.056678 5.684510 219 216 207
-0.844244 0.756697 4.052039 219 216 207
-0.873995 0.840352 4.518610 225 222 213
-0.565824 0.370658 1.953174 232 229 220
-0.480562 0.242479 1.253515 236 233 224
-0.503212 0.284823 1.486763 244 241 232
-0.733023 0.667637 3.585865 243 240 231
-0.725349 0.667128 3.585902 240 237 228
-0.585938 0.453675 2.419792 231 228 221
-0.922094 1.047748 5.685166 249 246 241
-0.710608 0.706991 3.819332 244 241 234
-0.911678 1.087898 5.918574 229 226 217
-2.062624 1.216884 6.143832 214 214 212
-2.050618 1.216088 6.143890 229 228 226
-2.038613 1.215291 6.143949 228 224 223
-2.674253 1.793419 9.173442 229 226 217
-1.204001 0.623964 3.115424 227 225 213
-1.474593 0.848054 4.280487 228 226 214
-2.843291 1.969544 10.105723 228 226 214
-2.769884 1.923447 9.872805 228 226 214
-1.393711 0.801460 4.047604 229 227 215
-1.115644 0.576875 2.882578 228 226 214
-2.126170 1.427239 7.309902 227 225 213
-2.643532 1.873837 9.640144 226 224 212
-0.837604 0.640887 3.350484 208 206 193
-1.124270 1.030955 5.448572 208 206 193
-1.113446 1.030236 5.448625 212 210 197
-1.485089 1.590852 8.479404 204 202 189
-0.513953 0.248367 1.252575 210 207 198
-0.629834 0.420965 2.185115 209 206 197
-0.624522 0.420613 2.185141 230 227 220
-0.910383 0.851855 4.516510 234 231 224
-0.786239 0.678708 3.584010 226 223 214
-0.519465 0.289960 1.485825 229 226 217
-0.515333 0.289686 1.485845 232 229 220
-1.027029 1.106960 5.915598 233 230 221
-0.480316 0.246135 1.252739 237 234 225
-0.502940 0.288864 1.485905 241 238 229
-0.498809 0.288590 1.485925 246 243 234
-0.469104 0.245392 1.252794 255 252 243
-1.094872 1.317600 7.081648 242 239 230
-1.081292 1.316699 7.081714 206 203 194
-1.433603 1.958488 10.579139 235 232 227
-1.582111 2.256935 12.211348 255 253 248
-0.828103 0.928852 4.983462 252 249 242
-0.910913 1.099257 5.916163 231 228 219
-1.941522 1.012573 4.975954 61 62 56
-1.931485 1.011908 4.976003 67 68 62
-1.721967 0.873165 4.277440 55 56 50
-3.894413 2.390562 11.962270 46 47 42
-3.806859 2.343139 11.729502 41 42 37
-1.695400 0.871403 4.277570 50 51 46
-2.725247 1.605554 8.003662 60 61 56
-1.548639 0.778438 3.811896 60 60 58
-1.540570 0.777902 3.811935 48 48 46
-3.125947 1.923438 9.634070 31 33 30
-3.108036 1.922250 9.634157 37 39 38
-2.271770 1.325784 6.606705 31 33 32
-2.196421 1.279171 6.373878 36 38 37
-2.121859 1.232610 6.141047 53 53 51
-2.109854 1.231814 6.141105 72 72 70
-2.036473 1.185331 5.908268 97 97 95
-2.085843 1.230221 6.141222 177 176 174
-2.073838 1.229424 6.141280 233 232 230
-2.061832 1.228628 6.141339 228 227 225
-0.587826 0.340169 1.717827 208 206 193
-0.676481 0.470894 2.416978 208 206 193
-0.599605 0.382565 1.950964 207 205 193
-0.535717 0.295098 1.484886 219 216 207
-0.618860 0.425457 2.184064 230 227 218
-0.527455 0.294550 1.484927 229 226 219
-1.344138 1.555553 8.243580 223 220 213
-0.515061 0.293727 1.484987 227 224 215
-0.510930 0.293453 1.485007 234 231 222
-0.480070 0.249791 1.251963 236 233 224
-0.502668 0.292905 1.485047 252 249 240
-0.498537 0.292631 1.485067 255 253 244
-1.119131 1.374168 7.311899 254 251 242
-0.535664 0.378324 1.951275 214 211 202
-0.847515 0.940002 4.981280 223 220 213
-1.364887 1.889848 10.109033 244 241 234
-1.072447 1.412686 7.545321 245 242 233
-1.940861 1.022392 4.973870 67 68 62
-1.730239 0.882415 4.275559 65 66 58
-2.518997 1.438757 7.069065 59 60 52
-2.439343 1.391472 6.836341 56 57 49
-2.688878 1.576031 7.767575 53 54 48
-2.674117 1.575052 7.767647 59 60 54
-2.529570 1.481460 7.302126 63 64 59
-3.354086 2.082176 10.328571 60 61 56
-1.540039 0.785795 3.810260 52 52 50
-3.252190 2.033415 10.095955 38 40 37
-1.650539 0.877128 4.275947 33 35 34
-1.641683 0.876541 4.275990 34 36 35
-1.632827 0.875954 4.276033 47 49 48
-1.623972 0.875366 4.276076 83 83 81
-2.109062 1.243558 6.138612 134 135 130
-2.097057 1.242761 6.138671 220 219 215
-2.085052 1.241965 6.138729 226 225 221
-2.254733 1.379226 6.837240 230 229 225
-0.681811 0.476855 2.415765 211 209 196
-0.517198 0.255927 1.251005 207 205 192
-1.511596 1.707945 8.938868 206 204 192
-1.065709 1.090344 5.677468 208 205 196
-1.345145 1.528896 8.007230 245 242 233
-0.527182 0.298591 1.484069 246 243 234
-0.749275 0.649336 3.347886 224 221 212
-0.909300 0.911962 4.745780 227 224 215
-1.147072 1.305749 6.842633 235 232 223
-0.510658 0.297495 1.484149 240 237 228
-0.506527 0.297221 1.484169 242 239 230
-0.555014 0.384440 1.950158 248 246 234
-0.757422 0.733880 3.814070 255 253 241
-0.545177 0.383788 1.950206 255 253 241
-1.595648 2.217540 11.735806 255 255 243
-0.634279 0.557705 2.882221 212 209 200
-1.504058 2.127461 11.270028 210 207 200
-0.836817 0.949155 4.979245 233 230 223
-1.368510 1.950463 10.338239 246 243 234
-0.816743 0.947824 4.979343 242 239 230
-0.465215 0.294480 1.484370 240 237 228
-2.007428 1.079058 5.204489 81 81 73
-1.930162 1.031544 4.971835 79 79 69
-1.920126 1.030879 4.971884 74 74 64
-1.910089 1.030213 4.971932 72 72 62
-1.834398 0.982803 4.739271 71 71 61
-1.824755 0.982164 4.739318 76 76 68
-1.750244 0.934833 4.506650 72 71 66
-1.547575 0.794223 3.808545 69 68 63
-1.539507 0.793688 3.808585 46 47 42
-1.658811 0.886379 4.274065 37 37 35
-1.649955 0.885791 4.274108 41 43 40
-1.578201 0.838643 4.041427 62 64 61
-1.632244 0.884617 4.274194 104 106 103
-1.623388 0.884029 4.274237 190 191 186
-2.108271 1.255302 6.136119 227 226 221
-2.096266 1.254506 6.136178 232 231 226
-3.180999 2.089455 10.325444 229 228 223
-3.443528 2.318812 11.489317 228 225 218
-3.362718 2.271063 11.256680 229 226 219
-1.278067 1.327396 6.839253 206 204 191
-0.670023 0.481679 2.414636 205 203 190
-1.540714 1.768704 9.168278 209 207 194
-1.135841 1.190796 6.140854 212 210 197
-1.123836 1.189999 6.140912 203 201 189
-1.750699 2.164130 11.264529 238 236 224
-1.071179 1.144118 5.908138 255 253 244
-0.748795 0.656459 3.346374 238 235 226
-1.326539 1.584942 8.237199 225 222 213
-1.105946 1.273590 6.607060 239 236 227
-0.479577 0.257104 1.250411 254 251 242
-0.497992 0.300714 1.483352 252 250 238
-1.284239 1.666913 8.703466 252 250 238
-1.217699 1.577722 8.237729 245 243 231
-0.510307 0.343919 1.716322 225 223 211
-0.836155 0.958974 4.977161 220 217 208
-1.555472 2.320733 12.197601 245 242 233
-0.464943 0.298521 1.483513 236 234 222
-2.006741 1.089262 5.202323 213 213 203
-1.929501 1.041363 4.969751 218 218 206
-1.919464 1.040697 4.969800 217 217 205
-1.909427 1.040031 4.969848 210 211 197
-1.833762 0.992237 4.737268 200 201 187
-1.824119 0.991597 4.737315 191 191 181
-1.749635 0.943881 4.504729 182 182 174
-1.547043 0.802116 3.806870 167 167 159
-1.667083 0.895629 4.272183 147 146 141
-1.658227 0.895042 4.272226 130 131 126
-1.649371 0.894454 4.272269 119 120 115
-1.577643 0.846921 4.039670 149 151 148
-2.131491 1.268639 6.133510 224 226 223
-2.119485 1.267842 6.133568 228 227 223
-1.552257 0.845237 4.039793 230 227 222
-2.797587 1.826129 8.925649 229 226 217
-2.360042 1.497677 7.297140 227 224 215
-0.628434 0.441752 2.180703 205 203 190
-1.662296 2.050247 10.561816 207 205 192
-1.642810 2.048954 10.561911 253 251 239
-1.341063 1.601184 8.233895 252 250 238
-0.741035 0.663098 3.344897 232 230 218
-0.486806 0.261256 1.249599 229 226 219
-0.645338 0.528424 2.646518 250 247 238
-0.479331 0.260760 1.249635 252 249 240
-1.283163 1.682894 8.700074 248 246 233
-1.216674 1.592933 8.234500 235 233 220
-1.176442 1.547489 8.001748 226 224 211
-1.452756 2.079122 10.795785 212 209 200
-0.684447 0.702120 3.578121 227 224 215
-0.623670 0.612538 3.112520 232 230 218
-2.006054 1.099466 5.200157 252 252 242
-3.999134 2.526544 12.176452 252 252 240
-3.844112 2.429936 11.711474 248 248 236
-3.690665 2.333433 11.246488 241 241 229
-3.473191 2.189520 10.548947 240 240 228
-2.605990 1.570885 7.525903 238 235 226
-2.526807 1.522470 7.293422 229 229 219
-2.512833 1.521543 7.293490 225 225 217
-2.434832 1.473207 7.061003 223 222 217
-1.594009 0.856321 4.037830 217 216 211
-1.585547 0.855760 4.037871 219 220 215
-2.142705 1.281179 6.130959 228 229 224
-1.568624 0.854637 4.037954 229 230 225
-3.136303 2.080848 10.084854 230 227 222
-2.387068 1.513200 7.294102 230 227 220
-2.796485 1.842495 8.922175 231 228 221
-3.500843 2.407165 11.713145 229 226 217
-1.389996 0.756464 3.573090 228 225 216
-0.638708 0.447654 2.179548 205 203 190
-0.573059 0.356974 1.714135 209 207 194
-0.628084 0.446949 2.179600 201 199 184
-0.849360 0.806925 4.041456 204 202 189
-1.641526 2.068016 10.557865 227 225 212
-1.058037 1.166066 5.903373 253 251 239
-1.144465 1.344448 6.834419 235 232 225
-1.023202 1.163755 5.903542 253 250 241
-0.523286 0.353672 1.714377 253 251 238
-0.467872 0.263672 1.248914 234 232 219
-0.464135 0.263424 1.248932 230 228 215
-1.175444 1.562314 7.998601 229 227 214
-1.111763 1.471765 7.533178 214 211 202
-0.954179 1.202338 6.136745 203 200 191
-0.449185 0.262433 1.249005 224 221 212
-1.485368 2.316631 11.955825 250 248 236
-2.408275 1.397691 6.592738 170 170 160
-2.328724 1.348865 6.360341 169 169 159
-2.316325 1.348042 6.360401 167 167 155
-2.237956 1.299294 6.127998 167 167 155
-2.225951 1.298498 6.128057 170 170 158
-2.148763 1.249829 5.895648 175 175 165
-2.137151 1.249058 5.895704 182 182 172
-3.864217 2.539449 12.172484 190 190 182
-2.049926 1.199723 5.663344 209 209 201
-1.593452 0.864599 4.036073 229 228 223
-2.153919 1.293720 6.128407 232 231 226
-2.141914 1.292923 6.128466 226 225 220
-1.489503 0.814155 3.803795 230 227 222
-1.481434 0.813619 3.803834 229 226 221
-1.595070 0.908256 4.268850 228 225 220
-3.460425 2.382016 11.476096 229 226 219
-2.057876 1.287349 6.128875 231 228 221
-2.045871 1.286552 6.128933 230 227 220
-0.638358 0.452850 2.178445 206 204 191
-0.572760 0.361401 1.713195 206 204 191
-0.505000 0.269807 1.247956 205 203 188
-0.588148 0.405970 1.945905 202 200 185
-1.640242 2.087078 10.553819 204 202 189
-1.592582 2.040368 10.321266 241 239 226
-0.823416 0.813519 4.039822 255 253 241
-0.513700 0.313934 1.480698 244 241 232
-1.077831 1.309436 6.599216 251 249 237
-0.522987 0.358099 1.713438 231 229 216
-0.518463 0.357799 1.713460 226 224 211
-0.463889 0.267080 1.248156 231 229 216
-0.460151 0.266832 1.248174 223 221 208
-0.626074 0.582683 2.876859 218 215 206
-0.929544 1.168952 5.901584 204 201 192
-0.917933 1.168182 5.901640 205 202 193
-0.721873 0.806783 4.040317 224 222 210
-0.600100 0.580960 2.876986 241 239 227
-3.548565 2.232814 10.540475 117 117 107
-3.395616 2.134796 10.075814 117 117 105
-3.310580 2.085219 9.843525 119 119 107
-3.160386 1.987384 9.378851 116 116 104
-3.077318 1.937938 9.146552 119 119 107
-2.147997 1.261188 5.893237 136 136 126
-2.136386 1.260417 5.893293 156 156 146
-2.189144 1.307853 6.125739 206 206 198
-1.601356 0.873438 4.034275 229 229 221
-2.165133 1.306260 6.125856 232 229 222
-3.227331 2.123633 10.076633 230 227 220
-2.580685 1.641378 7.752753 229 226 219
-3.127533 2.073077 9.844416 230 227 220
-3.729301 2.552355 12.168515 230 227 220
-1.673811 0.966117 4.499328 229 226 219
-2.276761 1.445473 6.823421 228 225 218
-2.141922 1.348657 6.358672 228 225 218
-3.036010 2.067006 9.844862 227 224 217
-2.057085 1.299093 6.126382 229 226 219
-1.388985 0.771479 3.569903 228 225 218
-0.638008 0.458047 2.177342 206 204 191
-0.632696 0.457695 2.177368 203 201 188
-0.538214 0.319619 1.479719 207 205 190
-1.765917 2.246370 11.247263 205 203 188
-0.587823 0.410782 1.944884 198 196 181
-0.611447 0.456285 2.177472 195 193 180
-1.084655 1.234587 6.131117 209 207 194
-1.128159 1.325345 6.596311 252 250 238
-0.704954 0.638232 3.107828 255 255 246
-0.584886 0.454523 2.177601 255 254 242
-1.155527 1.458968 7.294286 251 249 237
-0.522689 0.362525 1.712498 239 237 225
