ply
format ascii 1.0
element vertex 1216
property float x
property float y
property float z
property uchar red
property uchar green
property uchar blue
end_header
-0.752642 -0.270575 2.793510 206 201 195
-0.632954 -0.153593 1.498148 208 204 195
-0.792916 -0.308927 3.049120 213 210 195
-1.315425 -0.816911 8.221293 211 207 195
-1.693458 -1.183740 11.839212 204 200 188
-0.835080 -0.349009 3.304329 208 204 192
-1.805752 -1.290988 12.607848 207 203 191
-0.981778 -0.490717 4.593966 205 201 189
-0.977798 -0.516722 6.704486 238 235 226
-1.007645 -0.546110 6.962191 231 228 219
-1.069229 -0.606616 7.477202 227 224 215
-1.100966 -0.637734 7.734507 143 140 133
-0.703860 -0.234981 2.802070 128 125 118
-0.795923 -0.327517 3.838684 110 107 100
-0.779987 -0.310865 3.578030 109 106 99
-1.234213 -0.767974 8.762391 106 103 96
-1.269100 -0.801975 9.019028 103 100 93
-1.327665 -0.859718 9.534678 104 101 94
-1.294036 -0.824804 9.013742 109 106 99
-0.761897 -0.290176 3.053800 120 117 108
-0.935075 -0.463163 4.865317 186 182 173
-1.477293 -1.004953 10.559091 207 203 192
-1.762511 -1.288764 13.402987 205 201 190
-0.857606 -0.383986 3.825609 201 197 185
-0.990042 -0.515547 5.117697 209 205 193
-1.355746 -0.879232 8.736630 210 206 194
-1.367899 -0.890358 8.734054 204 200 188
-1.065669 -0.588909 5.629731 204 200 188
-0.994501 -0.517565 4.852720 206 202 190
-0.894615 -0.417867 3.817764 207 203 191
-0.792329 -0.340910 4.365044 241 238 229
-0.679619 -0.221854 2.805427 234 231 222
-0.684528 -0.226348 2.804387 219 216 207
-1.141491 -0.702888 8.513718 223 220 211
-1.174192 -0.735471 8.770704 110 107 100
-0.678075 -0.217794 2.541837 108 105 98
-1.262977 -0.824688 9.543638 102 99 92
-0.774493 -0.316645 3.577071 93 90 83
-1.200682 -0.757076 8.501171 91 88 81
-1.656664 -1.224781 13.418957 97 94 87
-0.774838 -0.314315 3.313079 106 103 94
-0.780377 -0.319385 3.311906 195 192 183
-0.809613 -0.348796 3.569626 211 207 196
-1.679931 -1.240789 12.886189 211 207 195
-1.259222 -0.808021 8.224845 214 210 198
-1.122888 -0.667337 6.670236 210 206 194
-1.556805 -1.109552 11.064863 201 197 185
-0.998260 -0.537370 5.113146 205 201 189
-1.135518 -0.676254 6.403641 204 200 188
-1.013746 -0.551548 5.109863 205 201 189
-0.650796 -0.201305 2.545952 245 242 233
-0.635768 -0.184319 2.285334 240 237 228
-1.118540 -0.703740 8.514288 228 225 216
-0.786090 -0.344526 4.100096 219 216 207
-1.183351 -0.769527 9.028157 113 110 103
-1.195819 -0.780942 9.025514 99 96 89
-0.847934 -0.407598 4.614594 94 91 84
-0.731197 -0.281364 3.056517 100 97 90
-0.847132 -0.403635 4.350960 96 93 86
-1.213246 -0.790440 8.494213 130 130 120
-1.247857 -0.825352 8.750680 208 206 194
-1.213835 -0.787752 8.230284 216 214 201
-0.663705 -0.206667 2.015609 210 207 192
-0.857406 -0.409814 4.084979 207 203 191
-1.512760 -1.096909 11.068761 206 202 190
-1.113845 -0.676849 6.668658 203 199 187
-1.049492 -0.608253 5.890888 204 201 186
-1.657633 -1.242446 12.093267 207 203 191
-1.572713 -1.151794 11.056053 204 200 188
-0.768270 -0.312075 2.784855 204 200 188
-1.706378 -1.287070 12.082934 205 201 189
-1.355305 -0.920490 8.464101 206 202 190
-1.102763 -0.714968 8.777026 237 234 225
-0.805691 -0.382062 4.620967 236 233 224
-0.812804 -0.388574 4.619460 229 226 217
-0.560482 -0.108061 1.244983 223 220 211
-0.745944 -0.312129 3.578875 117 114 107
-1.225289 -0.838564 9.542122 90 87 80
-1.280190 -0.896443 10.057863 92 89 82
-0.996886 -0.583759 6.426265 97 94 87
-0.984673 -0.568769 6.165164 164 161 154
-1.015523 -0.600820 6.422314 200 197 190
-1.091326 -0.681643 7.197314 219 219 209
-1.124066 -0.715424 7.454064 224 222 209
-0.792771 -0.354997 3.568949 218 216 201
-1.306968 -0.909529 9.261119 201 198 183
-1.071433 -0.652003 6.410463 206 202 190
-1.032648 -0.608879 5.891306 212 208 196
-1.553033 -1.165267 11.318475 210 207 192
-1.346203 -0.941638 8.989113 205 201 189
-1.208692 -0.792896 7.436126 203 199 187
-0.637105 -0.182016 1.492431 200 196 184
-1.127342 -0.703187 6.398612 204 200 188
-0.679605 -0.253425 3.063663 238 235 226
-1.008354 -0.629029 7.474753 238 235 226
-1.038278 -0.660815 7.731985 229 226 217
-1.108154 -0.737957 8.507899 215 212 203
-1.159944 -0.794150 9.024071 149 146 139
-0.807176 -0.392167 4.354497 110 107 100
-1.267304 -0.909999 10.055614 202 199 192
-1.322874 -0.969653 10.570985 217 214 207
-0.721391 -0.291679 3.054805 216 213 206
-1.049878 -0.658261 6.938801 220 217 210
-0.742284 -0.310806 3.050377 236 234 219
-1.284626 -0.908293 8.997642 206 202 190
-0.711073 -0.273451 2.529843 214 210 198
-1.333318 -0.957260 9.250896 209 205 193
-1.057251 -0.651839 6.146513 200 197 182
-1.383271 -1.007380 9.503882 203 199 187
-0.902352 -0.479297 4.334322 205 201 189
-1.059245 -0.649273 5.882516 202 198 186
-1.346573 -0.960612 8.720936 203 199 187
-0.871455 -0.442230 3.813721 206 202 190
-1.245729 -0.935491 11.109049 237 234 225
-0.904748 -0.528854 6.175573 238 235 226
-1.237605 -0.918108 10.583850 222 219 210
-0.632276 -0.204826 2.281418 217 214 205
-0.912077 -0.530591 5.910559 219 216 209
-1.200698 -0.864431 9.537830 213 210 203
-0.584180 -0.145878 1.501230 212 209 202
-1.239993 -0.900404 9.529501 219 216 209
-1.204432 -0.842985 8.219735 205 201 189
-1.239100 -0.879696 8.475847 203 199 188
-1.016337 -0.626037 5.888459 205 201 189
-0.977474 -0.580515 5.369775 206 203 188
-0.871565 -0.458695 4.074921 201 197 185
-1.285094 -0.916829 8.202637 210 206 194
-1.220567 -0.842839 7.425932 204 200 188
-0.923542 -0.573796 6.695015 234 231 222
-1.062252 -0.739661 8.509038 243 240 231
-0.830282 -0.455092 5.134705 225 222 213
-0.551982 -0.117003 1.243500 217 214 205
-0.901284 -0.531201 5.646348 223 220 213
-0.787680 -0.393874 4.090350 207 204 197
-1.103831 -0.766615 7.973532 218 215 208
-0.913502 -0.536832 5.380411 220 220 210
-0.754383 -0.346729 3.307368 228 226 211
-0.582165 -0.144634 1.237102 211 208 193
-0.810528 -0.409237 3.822160 209 205 193
-0.770998 -0.361939 3.303846 208 204 193
-1.239826 -0.902223 8.471398 211 207 195
-1.275144 -0.940109 8.727258 203 200 185
-1.406269 -1.087922 10.016196 207 203 191
-0.793151 -0.382219 3.299151 205 201 189
-0.754040 -0.381187 4.358360 239 236 227
-0.579400 -0.159949 1.763057 243 240 231
-0.712260 -0.324531 3.577520 224 221 212
-0.699340 -0.306566 3.317026 212 209 200
-0.972122 -0.642195 6.944455 213 210 203
-0.632801 -0.221108 2.278202 219 216 209
-0.721493 -0.326847 3.312331 223 220 213
-0.869473 -0.505270 5.123588 225 222 215
-0.815225 -0.437200 4.345391 221 218 211
-1.212110 -0.910985 8.999442 226 224 212
-0.641140 -0.222606 2.013202 224 222 209
-0.995884 -0.645540 6.149722 212 209 194
-0.649067 -0.229863 2.011522 213 209 197
-1.081552 -0.742375 6.921259 201 197 186
-0.588387 -0.155904 1.234688 209 205 193
-1.147816 -0.815309 7.433677 198 195 180
-1.416882 -1.129126 10.272197 201 197 185
-1.026090 -0.667056 5.880087 205 201 189
-0.852858 -0.524513 5.913654 234 231 222
-0.932938 -0.624696 6.949151 249 246 237
-0.815745 -0.470384 5.132168 230 227 218
-0.823488 -0.477473 5.130526 210 207 198
-0.887611 -0.556329 5.906288 214 211 204
-0.991840 -0.685336 7.199784 232 229 222
-1.079795 -0.792728 8.233611 214 211 204
-0.953152 -0.629765 6.418631 222 219 212
-0.721832 -0.337386 3.310249 224 221 214
-1.338415 -1.103381 11.073088 225 222 215
-0.877691 -0.527094 5.119037 222 222 212
-0.675453 -0.274773 2.530727 232 230 218
-1.255501 -0.987169 9.511956 229 227 214
-1.290227 -1.025678 9.767713 195 191 179
-1.435299 -1.198793 11.315670 210 206 194
-1.428344 -1.185708 11.054026 209 205 194
-0.879004 -0.514860 4.592523 200 196 184
-1.526985 -1.296164 11.822471 203 200 185
-1.394224 -1.127601 10.008787 206 202 190
-0.706802 -0.348453 3.837433 236 233 224
-0.540464 -0.123181 1.242656 238 235 226
-0.907132 -0.604844 6.425005 210 207 198
-0.860958 -0.540674 5.645782 215 212 205
-0.775268 -0.425731 4.348927 236 233 226
-0.648175 -0.258284 2.534842 224 221 214
-0.769423 -0.413080 4.087163 230 227 220
-0.598089 -0.190533 1.756448 224 221 214
-0.963041 -0.656027 6.413154 229 226 219
-0.972360 -0.664558 6.411179 229 229 219
-1.416429 -1.224379 11.840124 234 232 220
-1.054048 -0.761240 7.182874 249 247 234
-0.829655 -0.475520 4.337399 207 203 191
-1.442581 -1.241021 11.571577 204 200 188
-1.172688 -0.899048 8.209740 208 204 193
-0.582720 -0.161865 1.233699 205 201 189
-1.619591 -1.439565 12.849074 202 198 186
-0.847222 -0.484302 4.070672 198 194 182
1.577289 1.455312 13.520478 163 161 136
1.348009 1.292703 11.894542 164 162 139
0.657765 0.810554 6.753335 169 164 144
0.359628 0.600671 4.587024 173 169 157
-0.565478 -0.167417 1.762037 242 239 230
-0.959354 -0.701385 7.462112 248 246 234
-0.987819 -0.735325 7.718967 215 213 201
-0.816694 -0.499853 5.126348 214 211 202
-0.861471 -0.556608 5.642635 241 238 229
-0.869844 -0.564273 5.640860 230 227 218
-1.178517 -0.965072 9.518770 223 220 213
-0.914741 -0.613256 5.894232 229 226 219
-1.305173 -1.120427 10.806369 226 226 216
-1.340253 -1.160423 11.061823 232 230 218
-1.251632 -1.039887 9.766161 245 243 230
-1.075714 -0.807909 7.437447 206 202 190
-1.022237 -0.735309 6.660114 205 202 187
-1.356872 -1.159875 10.532521 202 198 186
-1.085467 -0.808956 7.172490 203 199 187
-0.961950 -0.648593 5.621336 204 200 188
-0.902488 -0.570514 4.845273 205 201 189
0.785409 0.876347 7.828110 173 167 155
0.366009 0.593958 4.585910 176 170 158
0.629239 0.767231 6.743907 178 172 160
1.093411 1.065218 10.783922 179 173 161
0.823641 0.869032 9.150089 183 179 167
1.161104 1.119344 10.267855 167 164 145
1.254564 1.177768 11.075647 170 165 146
0.760660 0.843199 7.556365 172 166 154
0.372391 0.587245 4.584796 177 169 158
-0.022282 0.325430 1.611870 179 173 161
0.948611 0.942903 9.697491 177 173 161
0.179551 0.446887 3.493277 178 174 162
0.933079 0.910595 10.219520 182 180 167
1.609732 1.380130 13.771187 170 164 150
1.487887 1.287839 13.220267 175 167 156
0.534602 0.665430 6.191992 180 174 162
1.281843 1.089586 13.439138 187 185 172
0.919364 0.919955 8.369855 169 166 151
0.944056 0.932351 8.637521 171 165 151
1.125225 1.033764 9.721014 168 165 148
1.148953 1.044696 9.988361 172 166 150
0.411930 0.585778 4.585778 175 169 155
1.062980 0.975917 9.178775 172 167 148
0.771588 0.766017 7.805991 182 174 163
0.772283 0.743909 8.330545 186 180 168
1.269345 1.017005 12.631164 185 179 167
0.372443 0.514330 5.099348 185 179 167
0.320445 0.466728 5.088326 184 180 168
0.133887 0.364171 3.475560 187 183 171
0.475707 0.607100 4.856453 172 167 148
0.563785 0.651872 5.661390 175 169 155
0.750426 0.715154 8.059756 184 176 165
0.928965 0.871018 7.831674 172 166 150
0.250881 0.463355 3.234366 173 167 153
1.691905 1.293689 13.756843 175 169 155
1.073637 0.928249 9.434190 178 172 158
0.555233 0.629161 5.656654 179 171 160
0.618821 0.662303 6.194083 181 173 162
0.394067 0.481620 5.622492 183 179 167
1.327910 1.046183 11.316589 177 169 158
0.643305 0.642439 6.719842 183 175 164
1.481836 1.082162 13.444102 184 176 165
0.441923 0.510548 5.629712 183 179 167
0.933608 0.822499 8.086728 176 170 156
0.393196 0.519552 4.307728 175 169 155
1.194765 0.951990 10.236057 180 172 161
0.243294 0.423418 3.490714 178 170 159
0.755626 0.686960 7.525508 179 171 160
0.214281 0.369460 4.008057 184 180 168
1.646957 1.226942 12.420098 172 166 150
0.704106 0.692243 6.202703 172 166 150
1.081420 0.894858 8.899004 172 166 152
1.375865 1.050168 11.054474 173 167 153
0.791952 0.729822 7.006221 174 168 154
0.466849 0.546445 4.844252 180 172 161
1.203197 0.920657 10.494609 182 174 163
0.112230 0.350326 2.414394 72 64 53
1.045626 0.747846 10.984473 183 179 167
0.296131 0.390158 4.808065 187 183 171
0.567359 0.481374 7.743510 187 183 171
0.135986 0.379035 2.156360 168 162 146
1.248117 0.966152 9.976115 159 153 139
1.427924 1.056448 11.321817 169 163 149
0.762728 0.700140 6.735013 173 167 153
0.779766 0.641428 8.046214 186 178 167
1.168415 0.789153 11.789845 184 182 169
0.183764 0.333602 3.735594 186 182 170
1.144624 0.878106 9.426618 174 168 154
1.663199 1.136630 13.196190 179 173 159
0.839006 0.613767 9.100433 184 180 168
1.322881 0.809637 13.385456 182 178 166
-0.018826 0.229991 2.122106 192 188 176
1.618836 1.096898 12.658084 165 159 145
0.035266 0.304242 1.609555 177 171 157
1.419702 0.978700 11.570716 179 171 160
0.062548 0.313192 1.876628 179 169 159
0.472795 0.496453 5.099059 183 175 164
0.182228 0.358653 2.947153 179 171 160
0.001933 0.273727 1.602490 180 172 161
1.528145 0.965797 13.422728 183 175 164
1.407610 0.903527 12.613310 184 176 165
1.088823 0.643741 12.023159 186 182 170
0.927743 0.576405 10.682568 187 183 171
0.245020 0.319984 4.528199 187 183 171
0.370586 0.354807 5.861261 187 183 171
0.434955 0.481308 4.565993 99 91 80
1.504103 0.961857 12.627868 111 103 92
1.474168 0.917845 12.882698 183 175 164
0.059281 0.253642 2.658136 185 181 169
0.912839 0.536826 10.674314 185 181 169
0.273046 0.316479 4.792848 185 181 169
0.387193 0.476595 3.770220 171 167 155
0.253543 0.388621 3.219769 141 133 120
0.604011 0.537572 5.904664 132 124 113
0.828572 0.622828 7.779689 182 174 163
1.348301 0.840786 11.805766 182 174 163
1.470722 0.815346 13.920201 186 182 170
0.848924 0.555514 9.089306 183 179 168
0.211595 0.315841 3.732998 187 183 172
1.381606 0.733764 13.901311 180 176 165
1.500394 0.951761 11.832453 169 161 150
0.599136 0.535417 5.639646 186 176 164
0.103065 0.312301 2.142191 173 163 153
1.198146 0.763917 10.463653 178 168 158
1.490278 0.853646 13.135040 183 175 164
0.055505 0.268761 2.132110 186 180 168
1.372758 0.763831 12.849183 185 179 167
0.798348 0.540082 8.291337 167 164 149
0.556219 0.371733 7.457174 188 184 172
0.293150 0.290839 5.052894 188 184 172
0.279019 0.392651 3.221379 172 164 151
1.789354 1.041212 13.974808 173 163 153
1.620190 0.959758 12.895622 145 135 126
0.470910 0.458206 4.827046 134 125 116
1.238489 0.775497 10.467224 137 129 118
1.407637 0.838583 11.807239 46 38 27
1.053524 0.679577 9.384689 183 173 163
0.736118 0.535823 7.230751 181 173 162
-0.012218 0.236149 1.594653 153 147 135
0.963925 0.524143 10.409025 163 159 147
0.728070 0.604753 5.921847 167 163 151
1.695096 1.016678 12.644772 173 165 152
1.440613 0.897313 11.026523 176 168 155
0.126359 0.318987 2.144253 180 172 159
1.333745 0.837347 10.482434 165 157 146
1.190951 0.763427 9.670013 174 165 156
0.582031 0.489995 5.630173 181 174 164
0.909056 0.600033 8.306671 182 174 161
0.205572 0.315767 3.203915 159 153 141
0.935287 0.529375 9.615820 186 182 170
0.247887 0.297703 3.995038 168 165 150
1.254784 0.594654 12.812157 85 81 69
0.329381 0.296571 5.055184 187 183 171
1.228517 0.774210 9.673338 161 154 144
1.086726 0.702953 8.861472 104 100 91
1.651286 0.927048 12.890194 105 101 92
0.094409 0.282419 2.136043 178 174 162
0.149739 0.294039 2.668978 154 150 138
0.165697 0.289133 2.932964 185 181 169
0.141156 0.266666 2.927762 185 181 172
0.266014 0.302905 3.996642 189 185 176
0.730850 0.435709 8.004226 186 182 171
0.247509 0.285965 3.992720 164 160 148
0.543838 0.362085 6.661568 172 168 156
0.087165 0.217239 2.916318 188 184 172
0.350913 0.204984 6.360070 191 187 175
0.032883 0.148031 3.165415 191 187 175
0.760536 0.603548 5.922653 167 163 151
0.101050 0.261082 2.396502 168 164 153
-0.006165 0.223223 1.592308 141 137 126
0.670446 0.440684 6.945513 58 53 47
0.250773 0.297659 3.730685 41 36 32
0.992023 0.514002 9.879059 157 152 146
1.141036 0.549930 11.213092 182 178 169
0.613764 0.328501 7.714966 186 182 170
0.077047 0.198912 2.912392 189 185 173
0.605059 0.280336 8.234099 191 187 175
0.614843 0.208902 9.278130 190 186 174
0.209618 0.159495 5.024407 188 184 172
0.045719 0.130037 3.426730 194 190 178
0.561205 0.509001 4.575488 167 163 151
0.056964 0.274859 1.604480 168 164 152
0.026964 0.247395 1.598121 180 178 166
0.283762 0.296371 3.995929 87 82 76
0.222079 0.239902 3.982854 187 183 171
0.723921 0.347772 8.515603 185 181 169
0.594126 0.311666 7.446591 183 179 167
0.805103 0.339374 9.574311 185 181 169
0.133992 0.200620 3.443432 188 184 172
0.187444 0.187516 4.235887 187 183 171
0.100762 0.170200 3.436388 189 185 173
0.349809 0.170720 6.353303 185 181 169
0.295789 0.121267 6.341852 191 187 175
0.057256 0.109692 3.687541 192 188 176
1.965681 1.080579 13.459329 170 166 154
0.910097 0.624494 6.989322 169 165 153
0.267869 0.355474 2.949279 178 174 162
1.038160 0.571643 9.098552 179 175 166
1.306514 0.625962 11.497781 169 164 158
-0.046884 0.194896 1.320997 170 165 159
0.772420 0.413412 8.001181 169 165 154
0.750633 0.393467 7.996563 158 155 140
0.322190 0.192592 5.563400 186 182 170
-0.116305 0.131343 1.306282 185 181 169
1.017493 0.170024 13.778863 189 185 173
0.567169 0.489352 4.571819 169 165 153
1.034949 0.655473 7.792730 172 169 154
0.272476 0.350627 2.948475 168 165 150
0.267568 0.346134 2.947434 81 77 65
0.067608 0.250449 1.864463 182 178 169
0.219641 0.280416 3.197422 118 114 105
0.249697 0.264245 3.724085 180 176 165
0.205311 0.245454 3.454530 106 103 88
0.426323 0.294883 5.322403 81 77 65
1.348009 0.505213 13.062017 186 182 170
1.117201 0.315759 12.752946 186 182 170
0.869464 0.132651 12.180141 190 186 174
0.466741 0.113457 7.932434 193 189 177
0.606483 0.066643 10.043226 190 186 174
0.069684 0.268036 1.603548 151 147 135
1.342463 0.738060 9.934333 68 64 53
0.267267 0.336794 2.945590 167 163 154
0.691496 0.478491 5.895866 45 45 35
0.503423 0.396015 4.815872 177 174 165
0.255191 0.258465 3.723126 185 181 170
-0.050272 0.180645 1.318089 170 166 154
0.639184 0.340903 6.924906 35 32 17
0.400931 0.279762 5.054179 151 147 135
1.217921 0.399801 12.508254 184 180 168
0.591102 0.184763 8.214875 185 181 169
1.043167 0.194970 12.991276 189 185 173
0.114712 0.129862 3.693349 186 182 170
0.777840 0.153894 10.594746 192 188 176
0.072052 0.113233 3.424274 192 188 176
-0.057411 0.106836 2.096672 190 186 174
0.109916 0.103046 3.952364 193 189 177
0.833777 0.547268 6.442823 168 164 152
0.442625 0.396238 4.020651 79 75 64
1.506242 0.771780 11.003968 176 171 165
0.185305 0.298708 2.406600 169 164 160
1.720620 0.829997 12.608916 158 155 146
0.538554 0.415039 4.820738 140 137 128
0.052813 0.246436 1.598762 168 165 156
0.159635 0.275209 2.401159 172 168 159
0.192884 0.236628 3.187960 177 173 162
0.737461 0.344062 7.721996 180 176 164
1.233173 0.383757 12.505592 184 180 168
-0.092713 0.136218 1.307997 187 183 171
0.392026 0.165867 6.089268 188 185 170
0.720806 0.075747 10.577561 185 181 169
-0.065581 0.092038 2.093502 187 183 171
0.133097 0.043858 4.734793 192 188 176
0.878241 0.571346 6.448982 166 162 150
1.548437 0.783891 11.007702 145 141 130
0.815218 0.513651 6.435623 162 157 151
1.135225 0.617902 8.581882 169 164 160
0.055942 0.243144 1.598216 178 174 165
0.132341 0.265909 2.134017 166 162 153
0.523891 0.388479 4.815049 104 100 91
0.634487 0.418962 5.617902 56 52 41
0.193701 0.274906 2.666631 170 166 155
0.993225 0.511494 8.291979 181 177 168
0.533304 0.349921 5.336651 51 46 42
0.481731 0.326295 5.065916 147 142 138
1.424196 0.552213 12.280384 28 28 18
1.478545 0.554792 12.811512 120 122 111
0.064965 0.204229 2.119736 185 185 173
0.013442 0.157061 2.108814 183 179 167
0.159986 0.173277 3.438895 180 176 164
0.184234 0.171887 3.703838 180 176 164
0.856222 0.244545 9.821760 181 177 165
0.843124 0.232554 9.818983 176 172 160
-0.073751 0.077239 2.090332 189 185 173
0.765316 0.499679 5.902400 170 166 154
1.434814 0.725866 10.199340 160 156 145
0.155878 0.280137 2.137568 46 41 35
1.216733 0.622899 9.114357 134 129 123
0.516342 0.368431 4.810868 178 174 163
1.502885 0.594825 12.291283 175 170 164
0.608167 0.331646 6.128778 156 158 147
0.347142 0.261874 4.255624 164 164 152
0.099214 0.204093 2.385247 39 35 24
0.436706 0.271358 5.053677 141 137 125
0.522491 0.277382 5.850928 176 172 160
-0.006253 0.155881 1.843512 185 181 169
0.145234 0.173714 3.174069 165 161 149
1.104555 0.230168 12.206849 135 131 120
1.117444 0.217797 12.469271 183 179 168
1.243731 0.212560 13.794486 178 174 162
0.013648 0.125761 2.367109 185 181 169
1.208084 0.179927 13.786930 186 182 170
-0.050033 0.115803 1.834232 189 185 173
-0.026434 0.113237 2.098924 187 183 171
0.113635 0.096447 3.686750 187 183 171
0.887999 0.056089 11.901257 190 186 174
-0.070030 0.073326 2.089683 188 184 172
0.786606 0.528458 5.644300 167 163 151
1.272091 0.700637 8.602532 169 165 153
0.993252 0.593878 6.985977 167 163 151
1.956847 0.931483 12.900878 167 163 151
1.919919 0.798671 13.931350 174 170 159
0.456960 0.350436 4.276550 171 167 156
0.353227 0.255472 4.254562 153 151 139
0.555470 0.292110 5.854881 36 32 21
0.478152 0.270830 5.319342 178 174 162
1.443560 0.412085 13.311227 181 177 165
0.630774 0.212540 7.428293 170 166 154
1.237242 0.223208 13.267494 31 27 16
0.300056 0.107791 5.281591 187 183 171
0.763330 0.086375 10.052140 188 184 172
0.381958 0.083763 6.337251 187 183 171
0.481637 0.051258 7.656255 189 185 173
0.500120 -0.030827 8.698473 189 185 173
2.203998 1.025820 13.985100 163 159 147
0.334478 0.353001 2.950932 164 160 148
1.660661 0.807080 11.015862 164 160 148
0.201369 0.281810 2.403796 170 166 154
0.663810 0.375827 5.874808 166 162 153
0.462694 0.318379 4.534874 118 114 105
0.733808 0.363909 6.668027 99 95 84
0.502650 0.304291 5.062265 172 168 157
-0.021014 0.179559 1.318815 166 162 153
0.011996 0.184446 1.585273 95 92 83
1.421265 0.461255 12.262420 138 136 124
-0.010349 0.138657 1.839997 182 178 166
0.783512 0.206746 8.754248 179 175 163
0.219054 0.146001 3.964308 176 172 161
-0.054670 0.123415 1.571141 114 110 99
0.827617 0.145789 9.801439 182 178 169
0.330555 0.121411 5.285246 184 180 171
0.519886 0.117404 7.141603 181 177 166
0.279801 0.100281 5.015028 187 183 171
0.445407 0.023888 7.385277 189 185 173
0.222498 0.293252 2.406722 168 164 152
0.304728 0.316701 2.942845 166 163 148
0.740984 0.379185 6.406821 167 163 154
0.025125 0.190309 1.586846 179 175 163
1.056505 0.408884 9.067165 143 134 125
1.431764 0.467356 11.999519 86 83 74
1.650386 0.486093 13.861284 119 115 104
1.527418 0.425350 13.316526 185 181 169
1.303620 0.375960 11.713010 179 175 163
0.422999 0.191740 5.302032 175 171 159
0.091522 0.147433 2.638306 183 179 167
0.055644 0.140504 2.371354 138 134 122
1.259162 0.231600 12.740971 113 109 97
0.905403 0.192811 9.813175 157 153 141
0.398821 0.143691 5.556254 176 172 161
-0.087602 0.113026 1.303605 116 111 105
0.136474 0.110841 3.425873 133 129 120
0.643021 0.108098 8.201480 160 156 145
0.744349 0.097201 9.260344 177 173 162
0.119859 0.095631 3.422351 180 176 164
0.004305 0.093504 2.360472 178 174 162
0.455041 0.013754 7.383595 184 180 168
0.107647 0.032621 3.938455 189 185 173
1.868901 0.865193 11.827280 164 160 148
1.674243 0.633997 12.304482 177 173 161
1.483297 0.565180 11.227079 178 174 162
0.731429 0.353810 6.401529 169 165 154
1.508897 0.509126 12.010202 163 159 148
1.373185 0.437879 11.462971 153 149 140
1.140368 0.383723 9.858228 176 172 161
0.436351 0.242657 4.783589 95 91 79
0.464598 0.242019 5.048808 177 173 161
0.405171 0.187616 5.036212 162 158 146
0.462793 0.187373 5.566890 188 185 170
-0.060622 0.132151 1.308229 161 157 145
0.059660 0.136279 2.370653 72 68 56
1.041497 0.187224 10.874199 62 58 47
0.897915 0.055780 10.843764 111 107 98
1.032218 0.019750 12.427624 181 177 165
0.228943 -0.000212 5.258089 192 188 176
1.110630 0.576015 7.515113 170 166 154
0.059925 0.236934 1.332686 168 164 152
1.254865 0.572665 8.841275 168 164 152
0.712509 0.374019 5.876016 162 158 146
0.138810 0.227915 2.126761 136 132 121
1.457005 0.541091 10.957065 120 116 105
0.647639 0.341711 5.603148 105 101 90
1.231253 0.442736 9.872741 163 159 148
0.242875 0.214870 3.185290 174 170 161
1.482067 0.428642 12.257966 163 159 148
0.522712 0.254424 5.317550 36 32 21
0.443028 0.235633 4.782423 146 142 130
0.113925 0.150977 2.639721 181 177 165
1.387764 0.233998 13.274448 80 76 64
0.343442 0.144465 4.761314 139 135 124
0.867346 0.082514 10.054721 180 175 171
0.714724 0.051108 8.985899 39 35 26
0.508108 0.051506 7.128278 86 82 71
0.498159 0.042398 7.126170 179 175 163
-0.043502 0.061015 2.088116 185 181 169
0.753453 -0.102987 10.807933 185 181 169
1.045439 0.608021 6.461556 157 151 137
1.664326 0.759689 10.477794 165 161 149
0.532124 0.387040 4.021718 164 160 148
2.018022 0.834545 12.883798 162 158 146
0.368064 0.292169 3.468935 170 166 154
0.098206 0.211084 1.857712 54 50 39
1.282334 0.437649 10.137820 65 61 50
1.312543 0.382324 10.921233 128 124 113
0.449705 0.228609 4.781258 168 164 152
0.970021 0.290038 8.776601 178 174 162
0.535465 0.168818 6.094454 40 36 24
0.381976 0.138945 5.025905 121 117 105
0.328780 0.117906 4.755625 169 165 156
0.277474 0.098597 4.485747 180 175 169
0.656141 0.085672 7.933058 160 155 151
0.854350 -0.009475 10.565107 181 177 165
0.596126 0.003071 8.179340 183 179 167
0.906712 -0.044519 11.353217 179 175 163
0.494206 -0.007253 7.380726 185 181 169
0.882254 -0.122230 11.866039 185 181 169
0.442890 -0.054231 7.369848 186 182 170
0.284959 -0.032851 5.782351 186 182 170
1.551808 0.772539 9.154516 157 151 137
0.748027 0.488575 4.841912 158 152 138
0.642590 0.448535 4.301784 161 155 141
1.383085 0.674563 8.600974 157 153 141
0.074647 0.239263 1.333616 162 158 146
0.512925 0.329831 4.274299 172 168 156
0.269166 0.247887 2.928184 170 166 157
0.501400 0.291039 4.530746 169 165 156
0.756783 0.327140 6.397103 119 115 104
1.824247 0.513595 13.872271 159 155 144
1.677940 0.436140 13.323480 168 164 153
1.077933 0.310482 9.312959 173 169 158
0.331443 0.135449 4.494720 164 160 148
0.210629 0.109574 3.692443 171 167 156
0.516632 0.079048 6.605088 44 39 35
0.388786 0.074977 5.542432 152 147 143
0.116876 0.080229 3.154792 178 173 167
0.604685 0.046690 7.659309 177 172 166
-0.097397 0.081763 1.297148 141 137 128
1.045477 -0.058132 12.412749 93 89 77
1.110565 -0.083272 13.203214 124 120 108
0.771809 -0.054489 10.024737 181 177 165
0.811359 -0.074766 10.550899 185 181 169
0.038476 0.036699 2.879285 186 182 170
0.705717 -0.086752 9.751839 189 185 173
-0.130599 0.051368 1.290111 184 180 168
1.563216 0.760538 9.152525 155 149 135
1.758490 0.708717 11.264117 165 161 149
0.264659 0.263520 2.666673 156 152 140
1.883486 0.650205 12.843261 61 57 46
1.512660 0.541315 10.694458 172 169 154
1.251724 0.446556 9.345273 166 162 153
0.182682 0.217297 2.390521 174 170 161
0.894260 0.349898 7.199302 173 169 158
0.963697 0.355817 7.731571 110 106 94
1.596920 0.416688 12.523743 170 168 156
0.850187 0.136609 8.742610 52 48 36
0.067168 0.111548 2.366036 87 83 71
-0.094564 0.078782 1.296654 68 64 55
0.889886 -0.115282 11.338774 180 176 164
1.031784 -0.158322 12.921501 185 182 167
0.405996 0.355022 2.953626 160 154 140
0.472273 0.356885 3.484996 157 153 141
0.549494 0.368768 4.018686 163 159 147
1.683216 0.642113 10.984176 164 160 148
0.461603 0.317712 3.741395 159 155 143
0.366953 0.289874 3.204011 150 146 134
1.109644 0.411081 8.275990 60 53 47
0.108480 0.200277 1.855919 99 92 86
0.022965 0.180802 1.320471 163 156 148
0.407624 0.238890 3.988613 150 144 132
0.440813 0.239869 4.254309 169 163 151
0.473373 0.240271 4.519872 180 174 162
0.737672 0.276391 6.386519 171 169 157
1.074388 0.319995 8.785838 127 125 113
1.503202 0.183264 13.532625 169 165 153
0.377264 0.122882 4.758160 178 175 160
0.271921 0.114660 3.959849 101 97 85
1.303456 0.118025 12.455643 50 46 34
1.415661 0.103124 13.514069 163 159 147
0.285215 0.097424 4.221327 177 173 162
0.638897 -0.019871 8.176206 66 62 53
0.235433 0.022446 4.469436 68 64 53
0.632661 -0.054985 8.433545 180 176 164
1.126957 -0.190580 13.711533 182 179 164
0.168515 -0.009410 4.196590 184 180 168
2.196111 0.905212 12.638963 158 152 138
0.444983 0.351661 3.218655 156 152 140
0.944195 0.448829 6.427029 161 157 145
0.661359 0.369824 4.815799 136 132 120
1.288779 0.524387 8.568441 80 76 64
1.431725 0.535301 9.632927 48 44 32
1.595197 0.565006 10.701763 110 106 94
0.396858 0.247630 3.725547 88 81 75
0.980267 0.301929 7.985953 140 136 125
0.172230 0.161939 2.643747 171 167 156
0.955279 0.189093 8.756296 178 174 162
1.553621 0.167100 13.795506 175 171 159
0.621873 0.093780 6.875799 52 48 36
0.263016 0.005155 4.731362 178 174 163
0.729505 -0.137544 9.742624 180 176 164
2.000062 0.787436 11.816215 158 154 142
1.045487 0.494362 6.703666 162 158 146
1.054779 0.472299 6.964067 165 161 149
2.058249 0.687861 13.120709 150 146 134
1.726445 0.598086 11.241353 160 156 144
1.430941 0.510976 9.628123 178 172 160
0.705702 0.336145 5.339481 90 84 72
1.948815 0.557109 13.355945 141 132 125
1.720849 0.501258 12.015463 142 132 130
0.459468 0.233001 4.253559 172 164 153
0.204101 0.182634 2.648837 166 162 151
1.034561 0.270379 8.510374 167 165 153
1.441693 0.306838 11.439426 157 153 142
0.067901 0.149653 1.844670 117 113 102
0.176541 0.157404 2.642995 139 135 124
0.988469 0.228183 8.500604 172 168 157
1.050544 0.223873 9.030626 176 172 161
0.706588 0.092406 7.407125 167 163 151
0.718451 0.072697 7.668072 161 157 145
0.241398 0.002797 4.465767 183 179 168
0.807915 -0.181657 10.529788 183 179 167
0.608186 0.357174 4.282730 163 161 149
2.016958 0.712341 12.330880 150 146 134
0.668946 0.319346 5.070563 175 167 156
1.623142 0.507569 10.955814 162 152 140
0.263532 0.228558 2.659768 138 128 118
0.040520 0.180150 1.320907 54 45 38
0.575128 0.264609 4.792358 166 159 153
0.519711 0.245027 4.522294 164 155 146
0.349412 0.213726 3.452925 89 81 70
0.506114 0.232580 4.519412 84 78 66
0.842257 0.259953 6.915524 167 165 153
0.832623 0.251134 6.913482 71 69 57
0.160241 0.165149 2.379555 80 78 66
1.110565 0.256376 9.038939 54 52 40
1.010809 0.227353 8.501158 39 35 24
0.865898 0.188144 7.695488 173 169 158
0.233690 -0.047965 4.719984 179 175 163
-0.090047 0.029470 1.551549 180 176 164
1.774954 0.746959 9.949970 155 149 135
1.403100 0.628665 8.063724 155 149 135
2.359987 0.901751 13.172421 156 150 136
1.121030 0.497370 6.971120 161 152 143
1.509735 0.567625 9.377345 81 77 66
1.146649 0.457358 7.492958 153 150 141
0.345893 0.263741 2.933763 105 101 92
0.471874 0.283876 3.735077 131 122 115
2.039302 0.608174 13.104446 76 67 58
0.192352 0.218377 2.126606 139 130 121
0.720240 0.320853 5.336944 165 157 146
1.097971 0.381063 7.740843 173 163 153
0.172536 0.200235 2.122406 160 151 144
0.586779 0.230407 5.050451 113 109 97
0.659803 0.233793 5.582337 172 168 156
0.619512 0.196908 5.573796 94 92 80
1.198632 0.219357 9.827807 60 56 45
1.110752 0.202370 9.292773 165 160 154
0.838752 0.175489 7.427693 163 159 148
0.524190 0.077912 5.811794 173 170 155
1.185056 0.016536 11.374151 174 170 158
0.546396 0.034776 6.332908 178 174 162
0.854602 -0.000393 8.980273 182 178 166
0.301749 0.032936 4.473626 178 174 162
1.218231 -0.080022 12.413996 176 172 160
0.531840 -0.010281 6.588026 179 175 163
0.914420 -0.072561 10.025767 179 175 163
0.453542 -0.018496 6.055022 179 175 163
0.018795 0.027759 2.348021 181 177 165
0.736705 -0.140056 9.213486 182 178 166
0.259935 -0.068807 4.981170 184 180 168
1.595205 0.655158 9.132849 155 147 136
0.621623 0.377842 4.022785 161 153 142
0.615454 0.372195 4.021477 163 155 144
0.942340 0.445250 5.897391 163 153 143
2.223927 0.746022 13.137457 162 153 146
1.218290 0.407048 8.278687 80 71 62
1.915907 0.528669 12.555988 158 149 140
0.624048 0.283121 4.797566 161 152 143
0.180219 0.199950 2.122596 167 158 149
0.523109 0.255342 4.259992 163 156 148
0.516625 0.249407 4.258618 169 162 154
1.381204 0.362306 9.861755 149 142 132
0.626846 0.221054 5.314338 170 166 154
0.377863 0.187002 3.713026 176 174 162
0.704969 0.195631 6.105165 148 146 134
1.006743 0.051815 9.524291 174 170 158
0.456493 0.065103 5.278228 176 172 160
0.981177 0.028409 9.518872 176 172 160
-0.059455 0.077479 1.297525 174 170 158
1.442311 -0.066461 13.746045 176 172 160
0.917261 -0.030104 9.505324 178 174 162
0.646670 -0.116250 8.157521 178 174 162
0.268384 -0.042477 4.722176 178 174 162
0.121663 -0.015226 3.400630 178 174 162
0.469498 0.325873 3.214376 156 148 137
1.469619 0.583535 8.585869 159 149 139
2.372171 0.784773 13.678706 161 151 141
0.245020 0.219058 2.392869 138 133 127
1.453373 0.437080 9.614325 61 54 46
1.604935 0.444248 10.678351 70 63 55
1.634859 0.438747 10.942669 129 122 114
0.485542 0.241874 3.991702 157 150 142
1.259445 0.358233 8.799294 112 108 99
0.129028 0.178662 1.852332 139 132 124
1.492012 0.373766 10.396440 164 157 149
0.588046 0.237025 4.787354 160 153 143
0.747878 0.218868 6.111108 169 167 155
0.088820 0.108958 2.101785 124 120 108
0.633199 0.048092 6.602749 174 170 158
1.329792 -0.070801 12.683828 174 170 158
0.641284 -0.010298 7.120413 175 171 159
1.043206 -0.069995 10.559282 178 174 162
1.217367 -0.107930 12.144048 177 173 161
0.549334 -0.028683 6.584973 177 173 161
0.109693 0.029380 2.880134 181 177 165
0.561120 -0.050789 6.845446 179 175 163
1.123527 -0.160942 11.866182 179 175 163
0.392892 -0.040318 5.519912 182 178 166
1.102501 -0.245982 12.377675 177 173 161
1.433776 0.596396 8.058370 153 145 134
1.837466 0.698141 10.206824 157 149 138
1.360482 0.562775 7.784973 157 149 138
0.744102 0.366752 4.817852 154 145 136
0.681202 0.342648 4.546659 116 111 105
0.748835 0.337608 5.076716 142 139 132
0.647211 0.311530 4.539454 142 139 132
1.108242 0.398814 7.215785 43 40 33
0.742045 0.297915 5.333138 160 155 149
1.183231 0.367032 8.005262 125 121 112
0.738903 0.261561 5.590332 124 117 109
0.552035 0.224400 4.519279 169 162 152
0.756033 0.210289 6.109685 166 164 152
0.132174 0.141328 2.109536 169 167 155
1.126565 0.047337 10.056135 174 170 158
0.086461 0.066002 2.357707 176 172 160
0.999749 -0.035281 9.771393 174 170 158
1.216279 -0.104875 11.880176 175 171 159
1.215001 0.512234 6.977058 154 146 135
0.683998 0.366711 4.287039 158 152 140
0.658065 0.342970 4.281542 159 153 141
0.651582 0.337035 4.280168 139 132 122
1.254051 0.445806 7.758575 117 114 107
0.626399 0.279923 4.532576 113 110 103
1.444336 0.415651 9.345387 159 156 149
1.464588 0.400132 9.607426 155 150 144
0.143173 0.178137 1.852684 158 154 145
0.271311 0.193265 2.653084 83 79 70
0.435319 0.207172 3.718834 169 162 154
0.210269 0.171443 2.382398 149 140 131
0.312159 0.162542 3.177235 165 161 150
1.920258 0.272337 13.827956 154 152 140
1.059313 0.199413 8.232789 154 152 140
0.233809 0.090816 3.160627 166 162 153
0.287401 0.037699 3.945226 173 169 157
0.160683 0.023871 3.145127 174 170 158
1.262990 -0.159073 12.399903 179 175 163
-0.078120 0.043669 1.290283 175 171 159
0.484207 0.310400 3.211809 160 152 141
1.246298 0.488454 7.237829 157 149 138
0.099776 0.200952 1.326897 154 151 142
0.755353 0.316138 5.072708 152 149 140
0.939779 0.311770 6.399961 43 40 33
0.650757 0.255025 4.792904 136 131 125
1.269105 0.301489 8.788456 137 130 122
0.434960 0.196034 3.716634 167 160 152
0.257249 0.171910 2.648437 165 156 147
0.423253 0.185317 3.714152 122 113 104
0.275672 0.154134 2.909974 152 148 137
0.184337 0.139802 2.375349 121 117 106
0.319683 0.125143 3.434567 162 158 147
1.405635 -0.023853 12.166612 174 170 158
0.485568 0.034519 5.273153 174 170 158
-0.051140 0.062794 1.294907 172 168 156
0.603530 -0.030695 6.586318 173 169 157
0.320060 -0.013075 4.465175 171 167 155
0.819252 -0.110335 8.693101 173 169 157
0.415584 -0.064189 5.515951 175 171 159
-0.078305 0.037926 1.289149 173 169 157
2.488804 0.832657 13.162984 152 144 133
1.640092 0.584029 9.120316 158 150 139
0.686750 0.310062 4.540435 118 116 103
1.494253 0.450519 9.089403 147 145 133
0.468877 0.251497 3.464182 96 93 84
0.194858 0.176754 2.118509 163 156 150
0.324454 0.189728 2.918533 161 154 148
0.319546 0.185235 2.917493 75 68 62
1.486255 0.302307 10.117778 152 145 137
0.209745 0.155160 2.379183 131 124 114
0.598903 0.159196 5.036850 58 54 43
1.603861 0.163414 11.945332 138 134 123
0.231197 0.104354 2.898765 165 160 156
1.526747 -0.048072 12.959057 167 163 151
1.615079 -0.072875 13.750334 170 166 154
0.693623 -0.000649 6.859552 171 167 155
0.787310 -0.020549 7.651964 174 170 158
0.264856 0.029500 3.678453 178 174 162
0.214116 0.018272 3.410180 173 169 157
1.095935 -0.125462 10.550078 175 171 159
0.692106 -0.107705 7.631783 178 174 162
1.150879 -0.216052 11.591796 174 170 158
1.324664 0.523452 7.247222 150 142 131
1.337246 0.499166 7.507292 152 144 133
0.843581 0.369471 5.086019 161 153 142
0.093369 0.183939 1.323349 154 151 142
0.771119 0.267331 5.328063 58 55 50
0.947679 0.285748 6.395102 137 134 127
0.343787 0.198362 2.920850 163 159 148
1.093431 0.240158 7.713014 139 132 122
0.693687 0.196444 5.311649 166 159 149
1.988273 0.235856 13.822973 157 153 144
0.179534 0.119603 2.371227 124 120 109
0.115360 0.060853 2.357624 172 168 156
0.588825 -0.006965 6.061632 170 166 154
0.889924 -0.053558 8.442087 170 166 154
-0.008349 0.055015 1.559191 170 166 154
0.168112 0.210403 1.595386 123 116 108
1.262035 0.374973 7.744915 72 69 60
1.299718 0.373084 8.010192 153 150 141
0.849249 0.288170 5.599104 151 148 141
0.983140 0.301584 6.399352 136 133 124
0.739130 0.260132 5.061183 145 142 137
1.349796 0.309771 8.792674 161 158 143
0.149575 0.157047 1.848746 156 149 139
1.049246 0.216559 7.442521 78 71 61
1.457784 0.226700 10.102010 169 162 152
0.331771 0.141911 3.173811 159 155 146
0.696142 0.148006 5.566650 44 39 33
1.928026 0.184172 13.546446 51 46 40
0.946614 0.122602 7.420766 165 161 152
0.567548 0.311143 3.479069 150 142 131
2.346639 0.682935 12.600128 154 146 135
1.397089 0.442107 8.026879 142 135 125
2.417182 0.599644 13.643780 149 149 137
1.036607 0.333905 6.407419 120 118 106
0.338802 0.212637 2.659057 45 42 33
1.202566 0.337963 7.471296 115 112 103
1.815354 0.418369 10.944462 156 153 144
0.578278 0.210063 4.252868 161 158 143
0.178275 0.139616 2.110680 49 42 34
1.944460 0.166884 13.543578 71 66 62
0.728902 0.126147 5.827845 122 117 113
1.581467 0.130319 11.409235 137 132 128
1.107453 0.103020 8.479835 54 49 43
1.336242 0.090662 10.071380 155 151 142
0.885721 0.084871 7.146960 173 169 160
0.545055 0.280323 3.472292 156 148 135
1.021641 0.341126 6.143919 112 110 98
0.995576 0.317265 6.138394 151 149 137
0.937720 0.301849 5.869070 148 146 134
0.489672 0.229622 3.460552 85 83 71
1.394827 0.344820 8.536569 50 50 38
0.808411 0.258571 5.327539 134 132 120
2.276043 0.438102 13.607511 152 149 142
0.669916 0.206882 4.784061 166 162 150
0.197849 0.150216 2.113392 162 155 147
1.070329 0.160402 7.696603 161 156 152
0.200139 0.114762 2.370937 92 87 83
1.348833 0.077418 10.069183 167 163 154
1.252586 0.383979 7.217505 154 148 136
0.668249 0.268482 4.267234 92 88 77
0.261019 0.200726 2.125344 149 145 134
0.505948 0.234294 3.461993 157 153 142
0.880000 0.271676 5.596851 131 129 117
1.382598 0.312344 8.529795 79 76 67
1.466221 0.312636 9.061414 140 137 128
1.149991 0.251925 7.452705 154 152 140
1.463922 0.272399 9.317873 161 159 147
1.681446 0.280879 10.648712 155 153 141
1.252912 0.155490 8.759252 157 152 146
0.084166 0.115086 1.573964 162 157 151
0.861013 0.101770 6.620611 160 156 147
1.016789 0.091853 7.681416 158 154 145
0.178485 0.087038 2.364795 169 165 154
2.495624 0.690593 12.870854 155 147 136
2.051334 0.516138 11.235686 154 148 134
1.158627 0.357016 6.680315 162 156 144
2.013369 0.442670 11.484471 121 117 106
0.207053 0.182716 1.855635 155 151 140
0.830692 0.250367 5.326643 156 154 142
0.822948 0.243279 5.325002 112 110 98
1.441598 0.306363 8.794953 41 39 27
0.280902 0.172896 2.384952 47 45 33
1.655692 0.308794 10.124494 129 126 117
0.602670 0.157760 4.507813 161 157 148
0.047169 0.113774 1.308080 96 92 83
1.295331 0.133747 9.020781 157 153 144
0.041132 0.108247 1.306800 160 156 147
0.108549 0.092539 1.834755 157 153 142
0.718988 0.070681 5.816629 148 144 133
0.420078 0.068029 3.955445 45 38 28
0.804533 0.032855 6.605258 171 164 158
0.654094 0.270872 4.002812 152 144 133
0.840848 0.284660 5.069269 147 140 130
0.319144 0.200005 2.391506 69 62 52
2.262724 0.446792 12.815477 79 72 62
0.256570 0.182014 2.121525 148 144 133
0.781422 0.230258 5.056672 153 151 139
1.892544 0.304379 11.453422 126 123 116
0.475214 0.107113 3.964895 141 137 126
1.924580 0.097939 13.000519 160 156 145
0.207908 0.098172 2.367928 165 161 150
1.933003 0.066356 13.259022 161 157 146
1.664621 0.056429 11.661827 152 148 137
2.314638 0.583359 12.050662 145 137 126
1.343105 0.371853 7.482468 154 146 135
1.170561 0.293648 6.932687 52 45 35
1.260999 0.296688 7.465064 43 39 30
1.002133 0.259087 6.127175 116 112 103
1.882743 0.347480 10.932699 152 149 140
2.097935 0.305222 12.517934 38 35 28
2.319264 0.308460 13.847866 140 137 130
0.188950 0.112792 2.105753 162 155 147
0.052836 0.107813 1.307091 141 137 128
1.481912 0.060285 10.334528 52 48 37
0.231748 0.072220 2.628032 160 154 142
1.393792 0.399301 7.489488 149 141 130
2.291917 0.452799 12.553157 155 147 136
1.410418 0.293147 8.262480 32 28 17
1.200405 0.262720 7.192007 76 74 62
0.548437 0.191822 3.719451 147 145 133
1.618827 0.241190 9.845591 77 74 65
1.748218 0.238268 10.642485 157 153 142
0.166251 0.125150 1.843015 161 157 145
1.815765 0.178731 11.426271 158 154 142
0.366092 0.105808 3.167821 155 151 142
1.218446 0.076946 8.478277 143 139 130
0.596603 0.074083 4.755617 144 140 129
0.431280 0.044110 3.951106 168 164 153
1.729867 0.441773 9.095251 147 139 128
0.231697 0.178326 1.855564 151 143 132
0.716574 0.211816 4.522091 118 114 103
0.752659 0.203811 4.786115 63 61 49
0.542225 0.175325 3.716010 160 158 146
2.273705 0.283000 13.312526 109 107 95
1.618024 0.216266 9.840669 147 143 131
1.978438 -0.069385 13.762688 157 153 142
1.565959 0.394142 8.287317 147 139 128
0.672348 0.200395 4.253990 148 141 131
0.851548 0.197960 5.317017 51 49 37
0.893152 0.194426 5.582096 143 141 129
0.980324 0.024499 7.138137 164 160 149
2.565094 0.444050 13.617962 153 147 135
1.025719 0.258701 5.863419 154 146 135
1.994088 0.343347 10.935463 154 146 135
2.340462 0.365017 12.801908 152 144 133
0.514647 0.170662 3.449771 128 124 113
1.943224 0.254579 11.180828 95 93 81
0.247428 0.137049 2.112397 147 145 133
0.311027 0.068662 2.894317 164 160 149
0.436313 0.014544 3.945459 163 159 147
2.434796 0.549143 12.047798 134 126 115
1.498200 0.376282 7.752756 148 140 129
0.989977 0.296087 5.340741 147 139 128
1.521129 0.354488 8.013649 146 138 127
1.339959 0.274203 7.463182 145 137 126
0.756113 0.210348 4.523073 130 122 111
0.593828 0.190137 3.720577 127 117 107
1.309169 0.246016 7.456656 134 124 114
1.298906 0.236621 7.454480 148 140 129
1.441294 0.238617 8.252758 157 149 138
0.255112 0.136764 2.112588 152 150 138
1.981488 0.091370 12.207743 158 154 142
1.170274 0.076078 7.683246 160 156 144
0.923048 0.063676 6.350682 157 154 139
2.171215 0.008349 13.784151 160 156 144
1.083377 0.039312 7.408795 162 158 146
0.949259 -0.040683 7.124334 157 153 141
0.292823 0.207335 1.863226 136 128 117
0.716538 0.204930 4.256300 77 69 58
1.549088 0.273233 8.527458 33 25 14
1.463023 0.237811 8.253297 77 69 58
1.093558 0.203145 6.383558 138 130 119
1.644065 0.230081 9.315344 145 137 126
2.338261 0.215092 13.301258 131 127 116
0.128993 0.100721 1.572581 153 149 137
0.312738 0.095466 2.635200 153 149 137
1.051418 0.077834 6.886461 156 152 140
0.298958 0.082851 2.632279 154 150 138
1.871583 0.004699 11.922748 156 152 140
1.048132 0.031459 7.141682 157 153 141
1.400915 -0.035881 9.519721 161 157 145
1.214914 -0.032692 8.456623 161 157 145
0.075660 0.051896 1.561276 163 159 147
0.761524 0.234140 4.263483 150 142 131
1.102664 0.238803 6.126418 90 82 71
0.188788 0.149305 1.584046 123 115 104
0.604817 0.178577 3.718659 141 133 122
0.130016 0.139450 1.315785 131 123 112
0.896108 0.181554 5.315225 47 41 29
1.819148 0.103647 10.882753 153 149 138
1.241143 0.349530 6.152619 136 128 117
0.709817 0.263892 3.738792 143 135 124
0.906534 0.265859 4.803247 147 139 128
1.829560 0.353843 9.345615 145 137 126
2.683358 0.422982 13.617621 155 147 136
0.309869 0.164934 2.119881 142 134 123
0.305906 0.161306 2.119041 42 34 23
0.301942 0.157678 2.118200 121 113 102
0.223058 0.129992 1.845790 136 126 116
0.637944 0.109034 4.234936 151 147 136
1.701122 0.102672 10.085458 153 149 138
1.110287 0.213691 6.121729 130 122 111
1.400402 0.208609 7.716674 119 111 98
1.127915 0.184717 6.381041 147 139 126
0.598246 0.150942 3.713019 148 140 127
1.858727 0.177071 10.369573 142 134 123
2.083728 0.157492 11.695141 76 69 59
1.315776 0.131137 7.698736 149 142 132
0.767132 0.249048 4.002154 142 134 123
1.280419 0.307702 6.410101 148 140 129
2.074955 0.258280 10.921348 146 138 127
0.244501 0.136147 1.847688 49 41 30
2.505977 0.241622 13.311856 90 82 71
1.598624 0.187765 8.776695 129 121 110
2.159306 0.198419 11.705609 128 120 109
2.195735 0.186075 11.968791 84 76 65
0.692844 0.089653 4.497329 156 152 141
0.481282 0.207348 2.662594 141 133 122
1.114831 0.278311 5.605696 145 137 126
1.716578 0.135058 9.563441 155 148 138
2.031399 0.099339 11.417598 149 145 134
2.382498 0.050555 13.534790 152 148 137
1.418800 0.047555 8.478937 154 150 139
2.506184 0.412594 12.023264 145 137 126
1.510029 0.297220 7.473166 144 136 125
0.336640 0.160165 2.119803 143 135 124
0.971168 0.178767 5.317088 38 30 19
0.599832 0.073108 3.962216 148 144 133
0.734071 0.055428 4.756366 153 149 137
0.563550 0.218257 2.931816 138 130 119
1.273233 0.298681 6.143660 142 134 123
1.355059 0.278712 6.671240 140 132 121
2.301957 0.339105 11.208954 149 141 130
2.340130 0.279173 11.727281 129 121 110
2.468428 0.111992 13.285182 153 146 136
2.733917 0.467347 12.570210 133 125 114
1.354487 0.260980 6.667738 148 140 129
1.749618 0.238544 8.791521 130 122 111
1.233195 0.197962 6.387024 50 42 31
1.270623 0.184206 6.649961 146 140 128
0.561096 0.110906 3.439522 150 141 134
0.184024 0.101853 1.574571 147 138 129
2.450180 0.063535 13.275076 149 143 131
0.379385 0.088617 2.635995 150 146 134
1.547130 0.177118 7.979637 120 113 103
0.210486 0.119923 1.578970 117 110 102
0.370565 0.120662 2.377570 147 138 131
0.915540 0.084943 5.296868 150 142 129
1.364776 0.058781 7.686094 149 143 131
1.700659 0.026055 9.541515 153 145 134
2.566864 0.401955 11.758685 139 131 120
1.459742 0.273736 6.938062 139 131 120
0.771031 0.184269 3.989553 145 137 126
0.989100 0.187168 5.054876 144 136 125
0.809812 0.170588 4.252548 120 112 101
1.128411 0.167150 5.848730 127 120 110
0.690843 0.110860 3.972555 142 133 126
2.658244 0.092139 13.816253 149 140 131
0.619147 0.094409 3.702583 150 142 131
0.960946 0.013842 5.813233 156 148 137
2.763425 0.404341 12.558779 140 132 121
0.502559 0.175930 2.657104 143 135 124
1.410986 0.211311 6.924232 136 128 115
0.412824 0.143546 2.383423 50 43 33
1.483700 -0.020716 8.467608 152 144 133
1.170154 -0.009162 6.873183 155 147 136
1.287946 0.231925 6.131017 140 132 121
0.203439 0.145350 1.319302 141 133 122
1.010474 0.179298 5.054016 78 70 57
1.796979 0.093757 9.293472 142 132 123
1.981764 -0.039164 10.859918 151 143 132
1.044675 0.009218 6.079451 152 144 133
1.596412 -0.039507 8.996411 150 142 131
0.770256 0.200315 3.728243 140 132 121
0.681241 0.169754 3.454942 140 131 122
2.203906 0.035825 11.410660 151 143 132
2.457735 0.013550 12.736623 151 143 132
2.619320 -0.042241 13.788602 151 143 132
0.133832 0.076054 1.303453 149 141 130
0.837369 0.199434 3.994663 135 127 116
1.076417 0.212231 5.062604 138 130 119
0.834156 0.144981 4.248299 90 86 75
0.676244 0.103441 3.706191 144 140 129
0.502544 0.098957 2.906419 148 141 131
2.632981 0.040371 13.276396 145 136 127
0.646968 0.170015 3.189455 134 126 115
1.561871 0.122002 7.704844 140 136 125
1.913272 0.079048 9.558754 139 132 122
0.614102 0.087835 3.436692 146 137 128
2.262021 0.033667 11.412102 140 131 122
2.256108 -0.023838 11.665052 143 135 124
1.851390 -0.081788 10.054044 144 136 125
1.319628 -0.047671 7.399293 150 142 131
1.918051 0.270513 8.538773 135 127 116
0.482778 0.115407 2.644578 138 134 122
1.291801 0.118599 6.373314 140 133 123
1.224998 0.110117 6.105065 137 133 122
0.641454 0.102647 3.440480 139 135 124
0.501942 0.080277 2.902730 147 138 129
0.786380 0.171837 3.723166 138 130 119
0.275518 0.130209 1.583080 133 125 112
1.363276 0.167404 6.385198 137 129 118
0.786889 0.119047 3.977248 141 133 122
0.190440 0.105580 1.311071 134 128 116
1.628933 0.091068 7.965358 139 132 122
2.586179 0.008782 12.739812 143 134 125
0.657608 0.053951 3.695870 145 137 126
0.706701 0.045638 3.960251 155 147 136
1.066204 0.001958 5.814278 147 139 128
2.104098 0.236758 9.331429 134 126 115
3.086380 0.274597 13.601411 136 128 117
0.261980 0.111660 1.579001 139 129 119
2.626466 0.068913 12.488481 138 131 121
1.917075 0.065545 9.291786 141 134 124
1.445032 0.064108 7.160843 142 133 124
0.906670 0.055797 4.761982 143 133 124
0.955743 0.046885 5.026244 148 139 130
1.282883 0.169392 5.854132 135 127 116
2.127452 0.180692 9.585602 141 133 122
