ply
format ascii 1.0
element vertex 1221
property float x
property float y
property float z
property uchar red
property uchar green
property uchar blue
end_header
-1.801103 0.896817 5.415179 146 137 44
-1.521338 0.780466 4.707838 144 135 42
-0.872362 0.546298 3.052274 145 136 43
-1.795565 0.842566 5.422597 146 137 44
-0.962258 0.552175 3.292553 146 137 44
-1.144526 0.588185 3.769796 145 136 43
-1.788181 0.770231 5.432488 144 135 42
-1.510997 0.679169 4.721689 144 135 42
-0.457095 0.879317 1.801973 146 137 44
-1.154516 1.616521 3.389436 146 137 44
-1.353193 1.821406 3.843782 147 138 45
-1.252938 1.709983 3.617837 147 138 45
-0.754589 1.181538 2.484191 147 138 45
-0.652453 1.051691 2.260765 146 137 44
-0.453674 0.845802 1.806556 145 136 43
-2.073365 1.040087 6.121240 146 137 44
-2.162571 1.043272 6.361985 145 136 43
-2.161478 1.032564 6.363449 146 137 44
-1.145384 0.656363 3.761903 146 137 44
-1.882601 0.912717 5.656295 145 136 43
-1.050780 0.600300 3.528388 145 136 43
-1.510498 0.750309 4.713780 146 137 44
-0.956517 0.547570 3.294418 146 137 44
-0.864086 0.512800 3.057991 145 136 43
-0.863091 0.503048 3.059325 145 136 43
-2.053404 0.844546 6.147977 144 135 42
-0.948886 1.391098 2.939035 147 138 45
-0.451214 0.848957 1.806776 146 137 44
-1.324512 0.737637 4.234774 145 136 43
-0.863774 0.557316 3.053042 145 136 43
-1.869444 0.876111 5.663507 145 136 43
-1.685262 0.805090 5.190662 146 137 44
-2.233775 0.978652 6.614597 146 137 44
-1.500454 0.727944 4.718655 146 137 44
-2.229233 0.934153 6.620681 145 136 43
-1.588626 0.725057 4.960328 144 135 42
-0.846279 1.296078 2.711790 146 137 44
-0.747056 1.186630 2.485381 146 137 44
-1.338330 1.803477 3.849286 146 137 44
-1.436303 1.900674 4.077371 146 137 44
-1.040659 1.475133 3.170057 146 137 44
-1.434172 1.879797 4.080225 145 136 43
-1.594804 0.865670 4.943016 145 136 43
-1.776291 0.918422 5.418553 146 137 44
-0.951517 0.601868 3.289462 146 137 44
-1.585586 0.775375 4.955362 145 136 43
-2.221707 0.968971 6.618515 145 136 43
-1.399424 0.676827 4.486087 145 136 43
-0.646204 1.096616 2.257160 144 135 44
-1.335240 1.837038 3.846223 144 135 42
-1.433016 1.936372 4.074113 143 134 41
-1.137101 1.613035 3.393908 144 135 42
-1.333236 1.817411 3.848907 144 135 42
-0.447720 0.869233 1.805307 144 135 42
-0.742257 1.179069 2.487358 144 135 42
-0.840076 1.278819 2.715190 144 135 42
-1.231126 1.675614 3.626823 143 134 41
-1.425912 1.866783 4.083628 144 135 42
-0.947936 0.618433 3.288432 143 134 41
-1.038611 0.648196 3.525835 144 135 42
-0.399823 0.400016 1.869465 144 135 42
-1.301599 0.648978 4.250144 145 136 43
-2.203960 0.903666 6.630040 144 135 42
-1.427598 1.951193 4.073710 144 135 44
-0.740348 1.199807 2.485465 144 135 42
-0.739935 1.195765 2.486018 145 136 43
-0.641530 1.086208 2.259429 144 135 42
-0.442695 0.847252 1.808964 145 136 43
-0.306800 0.370439 1.632591 143 134 41
-1.033000 0.648937 3.527065 143 134 41
-1.849281 0.955461 5.659276 144 135 42
-0.487513 0.431862 2.107331 143 134 41
-0.849896 0.564090 3.055528 145 136 43
-2.298382 1.082759 6.849716 145 136 43
-1.746520 0.803225 5.438522 145 136 43
-2.106266 0.909624 6.390251 145 136 43
-1.744674 0.785141 5.440995 144 135 42
-2.104080 0.888208 6.393179 144 135 42
-1.382669 0.656615 4.492292 143 134 41
-0.639077 1.097557 2.258723 146 137 46
-0.345218 0.769976 1.578515 145 136 43
-1.026676 1.493071 3.171308 144 135 42
-1.123549 1.591680 3.399491 144 135 42
-1.317706 1.792940 3.855305 144 135 42
-1.121800 1.574553 3.401833 144 135 42
-0.537107 0.949016 2.037367 145 136 43
-1.568926 0.852449 4.950568 143 134 41
-1.026224 0.638259 3.529857 143 134 41
-2.108860 1.039513 6.374989 145 136 43
-1.745018 0.876733 5.430580 145 136 43
-1.473800 0.770950 4.720045 145 136 43
-2.461090 1.088545 7.334950 145 136 43
-2.100115 0.953847 6.386702 145 136 43
-2.186636 0.951053 6.628750 144 135 42
-2.185501 0.939928 6.630272 144 135 42
-1.018065 0.558332 3.540785 143 134 41
-0.342883 0.770285 1.579027 144 135 42
-0.731163 1.188728 2.488866 144 135 42
-0.924429 1.389387 2.944956 143 134 41
-0.535591 0.965480 2.035864 143 134 41
-1.019314 1.472588 3.175343 142 133 40
-0.437775 0.853563 1.809404 143 134 41
-0.824652 1.258259 2.721122 143 134 41
-0.533953 0.949433 2.038059 145 136 43
-1.310190 1.846977 3.850968 144 135 42
-1.406371 1.946943 4.079160 144 135 42
-1.502467 2.046077 4.307466 144 135 42
-0.437026 0.873476 1.807332 144 135 42
-1.016814 1.499738 3.172866 144 135 42
-1.016274 1.494445 3.173589 143 134 41
-1.304847 1.794638 3.858125 143 134 41
-1.302843 1.775011 3.860809 142 133 40
-1.205795 1.666543 3.633779 143 134 41
-1.300172 1.748842 3.864387 145 136 43
-1.203293 1.642040 3.637130 145 136 43
-1.106499 1.536071 3.409758 145 136 43
-1.298169 1.729215 3.867070 145 136 43
-1.201417 1.623663 3.639642 145 136 43
-1.488915 1.913318 4.325619 145 136 43
-1.494466 2.039658 4.310064 143 134 41
-1.204777 1.716343 3.628399 143 134 41
-0.722805 1.185735 2.491161 143 134 41
-0.914348 1.385776 2.947725 143 134 41
-0.336514 0.754267 1.582326 143 134 41
-0.624314 1.059082 2.266521 143 134 41
-1.103220 1.559648 3.407866 144 135 42
-1.390297 1.857381 4.093030 144 135 42
-1.006210 1.447500 3.181243 144 135 42
-0.717027 1.129137 2.498900 144 135 42
-0.336604 0.778339 1.579589 143 134 41
-0.525146 0.957101 2.039256 143 134 41
-1.195238 1.742436 3.627689 142 133 40
-1.480722 2.048948 4.312235 143 134 41
-0.714446 1.182742 2.493457 143 134 41
-0.808488 1.273952 2.723137 143 134 41
-0.426796 0.855013 1.811812 143 134 41
-0.995808 1.448873 3.183524 144 135 42
-1.563573 2.030530 4.556906 144 135 42
-1.372357 1.817434 4.101739 144 135 42
-0.612883 1.053241 2.269857 144 135 42
-1.653756 2.164019 4.782720 145 136 43
-0.422911 0.844203 1.813941 144 135 42
-0.422626 0.841411 1.814323 143 134 41
-1.366228 1.825296 4.102287 143 134 41
-0.893502 1.324288 2.959544 143 134 41
-0.614131 1.100852 2.264193 142 133 40
-0.423587 0.878081 1.809960 142 133 40
-0.896674 1.402935 2.949928 143 134 41
-1.080777 1.562612 3.412788 143 134 41
-1.457190 1.962357 4.327516 143 134 41
-1.644850 2.156875 4.785612 143 134 41
-1.176552 1.738696 3.632487 142 133 40
-1.637621 2.166149 4.786259 142 133 40
-0.792610 1.248932 2.729679 142 133 40
-0.323382 0.741551 1.586836 143 134 41
-0.416851 0.839343 1.815909 143 134 41
-1.259591 1.734310 3.875530 143 134 41
-1.165297 1.628433 3.647564 143 134 41
-1.638771 2.257510 4.775681 142 133 40
-0.792324 1.289645 2.725152 143 134 41
-1.256501 1.767871 3.872468 143 134 41
-1.068973 1.558385 3.416030 143 134 41
-0.414676 0.845291 1.815747 142 133 40
-1.626202 2.134380 4.792517 142 133 40
-1.532147 2.026783 4.564689 143 134 41
-2.303046 1.061317 7.899029 135 129 43
-3.887048 1.603442 12.706819 136 130 44
-3.251049 1.363102 10.786915 134 128 42
-2.378184 1.048627 8.144860 134 128 42
-3.643032 1.459272 11.994245 133 127 41
-2.454500 1.047479 8.389113 133 127 41
-2.690231 1.110489 9.112785 134 128 42
-2.372621 0.994130 8.152312 135 129 43
-3.553749 1.333389 11.767361 136 129 41
-0.554099 0.400860 2.619228 135 128 40
-2.367058 0.939632 8.159764 137 130 42
-2.523266 0.972376 8.643478 137 130 42
-2.205456 0.854058 7.683273 137 130 42
-0.945396 0.490318 3.827475 137 130 42
-0.944771 0.484192 3.828312 137 130 42
-1.179907 0.541370 4.552782 135 128 40
-3.221312 1.071792 10.826747 138 131 43
-3.454960 1.114388 11.553210 137 130 42
-3.552476 1.514828 11.747188 134 128 42
-1.815569 0.882900 6.461348 135 129 43
-2.287370 1.036616 7.905488 135 129 43
-2.443568 1.077383 8.388299 134 128 42
-1.891021 0.877346 6.706300 133 127 41
-3.227581 1.310844 10.798308 133 127 41
-3.225722 1.292637 10.800797 134 128 42
-0.708570 0.464155 3.099902 136 130 44
-3.612736 1.360456 12.012489 135 128 40
-3.689140 1.364238 12.256165 136 129 41
-3.680685 1.281412 12.267490 137 130 42
-3.520017 1.196856 11.790666 135 128 40
-0.703593 0.415396 3.106569 136 129 41
-3.195985 1.001327 10.840629 140 133 43
-3.349972 1.020431 11.326403 137 130 40
-3.452468 1.469659 11.513710 136 130 44
-2.980045 1.285454 10.073156 135 129 43
-3.918677 1.592995 12.962587 134 128 42
-3.916436 1.571039 12.965589 133 127 41
-3.366245 1.365624 11.283645 133 127 41
-3.442537 1.372376 11.527012 135 129 43
-2.499277 1.019502 8.643779 136 129 41
-3.746856 1.391051 12.501619 136 129 41
-3.510630 1.298801 11.781362 137 130 42
-3.352639 1.232343 11.301869 137 130 42
-3.037169 1.104427 10.342199 137 130 42
-0.466236 0.359653 2.382458 136 129 41
-3.733919 1.264312 12.518949 135 128 40
-2.175092 0.806213 7.695782 136 129 41
-3.882817 1.241695 13.010622 137 130 42
-3.796338 1.135161 12.780898 136 129 39
-1.624964 0.601414 6.013754 137 130 40
-3.589425 1.528042 11.999040 134 128 42
-0.545481 0.434776 2.617419 134 128 42
-3.663237 1.514558 12.245271 134 128 42
-2.258713 1.013629 7.914793 134 128 42
-3.503271 1.420620 11.769341 133 127 41
-3.579069 1.426593 12.012912 135 129 43
-3.421430 1.355444 11.533866 134 128 42
-3.885893 1.486064 12.982330 136 129 41
-2.251972 0.947590 7.923822 139 132 44
-1.784684 0.789305 6.479141 137 130 42
-2.404503 0.968700 8.409711 138 131 43
-0.385556 0.341237 2.141434 137 130 42
-3.870204 1.332370 13.003345 136 129 41
-3.480956 1.202014 11.799232 135 128 40
-2.239837 0.828720 7.940076 136 129 41
-1.465751 0.611211 5.525943 137 130 42
-0.538053 0.362007 2.627369 138 131 43
-1.618283 0.632321 6.011831 137 130 42
-3.004133 0.950319 10.367323 137 130 42
-0.921708 0.437572 3.838974 138 131 43
-2.715557 1.222864 9.356171 135 129 43
-1.705318 0.848795 6.229020 134 128 42
-0.463181 0.400482 2.378567 134 128 42
-1.392327 0.712654 5.269697 133 127 41
-2.862374 1.196127 9.848796 135 129 43
-1.235817 0.644437 4.790055 135 129 43
-1.003025 0.561444 4.067950 135 128 40
-3.862074 1.466957 12.990064 138 131 43
-3.241856 1.251132 11.063698 136 129 41
-1.309840 0.637085 5.035545 137 130 42
-3.315216 1.237286 11.310076 136 129 41
-2.771789 1.041236 9.625491 136 129 41
-0.844281 0.471347 3.591300 135 128 40
-3.076465 1.095924 10.595951 135 128 40
-2.149950 0.809533 7.701296 135 128 40
-2.456102 0.878679 8.669780 136 129 41
-0.917564 0.456744 3.837781 137 130 42
-0.762925 0.406857 3.355633 137 130 42
-1.222295 0.511972 4.808168 139 132 44
-3.084406 1.347297 10.565730 135 129 43
-1.925559 0.921450 6.955232 136 130 44
-3.466238 1.445652 11.775190 133 127 41
-1.691002 0.808964 6.236867 135 129 43
-3.075326 1.258345 10.577893 133 127 41
-3.686736 1.420398 12.512388 139 132 44
-3.838255 1.447850 12.997798 137 130 42
-3.375243 1.282668 11.552894 138 131 43
-0.379248 0.342070 2.142818 136 129 41
-3.750423 1.315865 12.771263 134 127 39
-2.293156 0.880352 8.183760 133 126 38
-0.683927 0.413051 3.111439 134 127 39
-2.212529 0.818941 7.947575 135 128 40
-2.822480 0.966706 9.884024 137 130 42
-2.452775 1.128210 8.642405 134 128 42
-3.448736 1.468105 11.776756 136 130 44
-3.600075 1.501914 12.261491 133 127 41
-3.749044 1.512517 12.749399 135 129 43
-0.454943 0.390545 2.381617 132 126 40
-1.984840 0.890416 7.206846 136 129 41
-0.530674 0.408051 2.623902 138 131 43
-1.065259 0.574400 4.313909 134 127 39
-3.661664 1.380894 12.522717 136 129 41
-3.273905 1.204148 11.323490 136 129 41
-1.595217 0.695416 6.010115 134 127 39
-2.355940 0.903963 8.428388 134 127 39
-2.278376 0.868496 8.188559 134 127 39
-0.603047 0.392675 2.870684 134 127 39
-0.602592 0.388216 2.871294 135 128 40
-3.490252 1.150435 12.064871 137 130 42
-2.651012 0.897087 9.408044 138 131 43
-3.660312 1.573743 12.501276 134 128 42
-2.513407 1.142941 8.888539 136 130 44
-3.808547 1.585287 12.989249 134 128 42
-2.737419 1.176505 9.618278 136 130 44
-2.277503 0.992884 8.174729 136 129 41
-3.110930 1.233988 10.834299 135 128 40
-0.828032 0.479279 3.594211 136 129 41
-0.296806 0.317381 1.902915 135 128 40
-0.598210 0.388795 2.872255 137 130 42
-0.445827 0.336623 2.389836 137 130 42
-3.415761 1.532883 11.777170 137 131 45
-3.791452 1.632049 12.987977 134 128 42
-2.492716 1.085375 8.899880 132 126 40
-0.900987 0.533432 3.833011 138 131 43
-1.051581 0.576206 4.316909 134 127 39
-3.771280 1.434443 13.014996 136 129 41
-0.822421 0.480020 3.595441 137 130 42
-2.254379 0.899281 8.190706 137 130 42
-2.251597 0.872033 8.194432 135 128 40
-2.772026 0.956606 9.896981 137 130 42
-0.446473 0.413714 2.380987 133 126 45
-3.769874 1.634899 12.992709 132 127 45
-3.612325 1.515857 12.519045 129 124 42
-1.047584 0.604945 4.314603 130 125 44
-3.380001 1.376476 11.803192 129 122 42
-0.894967 0.534227 3.834331 133 126 45
-2.473543 1.042683 8.909187 134 128 44
-3.520003 1.323618 12.300360 136 128 45
-0.666253 0.430210 3.113643 140 132 49
-1.488218 0.648465 5.778475 137 130 42
-1.936157 0.763534 7.232563 137 130 40
-1.561062 0.649886 6.023251 136 129 39
-1.784251 0.699775 6.751341 140 133 43
-2.323677 1.135907 8.409775 123 116 36
-2.171897 1.065252 7.929301 124 117 37
-1.719764 0.884700 6.483582 122 116 38
-1.493406 0.791569 5.761114 120 117 40
-1.642532 0.836226 6.245143 121 117 43
-1.191461 0.666089 4.798001 119 115 41
-3.510222 1.429838 12.290667 120 113 41
-1.637279 0.784768 6.252179 119 113 39
-1.785810 0.823592 6.737006 119 113 35
-1.336185 0.667619 5.287927 128 123 42
-0.662954 0.445471 3.112693 136 129 48
-3.723642 1.396230 13.030465 139 132 52
-1.998813 0.785895 7.477363 137 130 40
-0.658973 0.406464 3.118027 136 129 41
-1.847641 0.721195 6.996075 141 131 44
-1.621520 0.630393 6.273287 141 134 46
-2.534298 1.224064 9.136491 113 106 34
-2.233681 1.095327 8.173434 111 107 36
-1.783961 0.914034 6.727234 108 103 37
-1.484110 0.792797 5.763152 106 102 39
-1.408508 0.756227 5.522988 104 100 39
-3.043074 1.279854 10.845016 99 97 36
-1.850436 0.861189 6.979625 104 103 39
-2.890595 1.194216 10.366396 110 106 42
-3.111837 1.249429 11.094341 121 116 48
-2.441271 1.016796 8.919666 132 128 57
-0.657665 0.441228 3.114411 145 138 68
-0.433053 0.353010 2.390979 135 129 43
-1.912653 0.766638 7.237718 138 131 41
-2.281212 0.856911 8.451199 137 127 40
-2.205865 0.822840 8.210692 139 129 44
-1.316263 0.556610 5.305117 139 132 44
-2.369000 1.153927 8.659124 86 85 31
-1.624404 0.859481 6.246765 83 81 32
-0.954928 0.600949 4.074757 83 80 35
-1.398699 0.748359 5.526173 77 74 33
-1.249492 0.686652 5.044086 75 76 34
-2.284613 1.027224 8.431186 70 68 27
-1.913108 0.887770 7.223944 73 71 30
-3.169408 1.295136 11.337697 86 84 36
-3.241394 1.300345 11.582247 103 101 50
-2.500540 1.042559 9.164875 131 128 75
-3.385110 1.308264 12.071688 154 148 96
-0.947582 0.528984 4.084597 156 155 98
-3.524173 1.270605 12.567361 142 140 63
-1.899680 0.756232 7.241930 137 130 40
-1.530939 0.643856 6.030986 141 131 44
-1.601292 0.633065 6.277723 141 134 46
-1.983803 1.001081 7.456599 50 51 20
-2.047260 0.926804 7.712115 59 59 33
-3.442832 1.375781 12.312548 74 73 42
-2.632467 1.092318 9.652357 119 114 82
-2.851126 1.146605 10.381011 169 163 129
-3.142922 1.221447 11.352215 180 181 139
-3.283620 1.207934 11.844780 154 153 86
-2.329703 0.910025 8.695846 139 136 57
-2.838711 1.024989 10.397640 135 128 38
-0.570549 0.378889 2.879850 137 130 42
-1.458155 0.815397 5.766681 55 57 43
-3.514999 1.592934 12.533143 52 54 40
-2.554777 1.180421 9.398615 59 61 48
-2.183777 1.005262 8.195283 63 64 59
-3.570902 1.448723 12.798317 58 58 48
-3.641814 1.451541 13.043388 61 59 44
-2.324350 0.998646 8.687101 67 64 45
-2.907077 1.172384 10.626995 128 123 103
-3.049326 1.182186 11.116568 193 193 159
-3.482655 1.276088 12.576466 167 166 112
-3.189248 1.169199 11.609256 152 149 80
-0.929380 0.478344 4.094573 137 129 44
-1.581063 0.635736 6.282159 139 131 48
-2.818751 1.168489 10.386124 60 56 44
-3.034825 1.221850 11.115489 72 66 52
-0.638000 0.438883 3.119281 153 150 131
-0.202316 0.297535 1.665287 206 204 181
-0.854469 0.496118 3.848116 201 197 168
-0.201588 0.290406 1.666262 170 164 112
-0.563150 0.393425 2.879943 155 150 86
-1.570949 0.637072 6.284378 143 136 56
-1.586049 0.885407 6.252822 51 52 46
-1.148697 0.703325 4.803815 56 57 52
-3.328132 1.541986 12.058662 59 59 57
-2.944316 1.200635 10.877083 51 48 33
-1.135970 0.578652 4.820862 201 196 167
-2.071096 0.851005 7.977081 190 182 143
-1.632574 0.657458 6.529641 156 148 75
-3.529385 1.672507 12.782792 57 58 52
-1.862893 0.979236 7.225385 70 70 68
-1.139448 0.688752 4.807625 71 71 69
-3.295765 1.422881 12.079681 67 69 64
-2.139436 0.969694 8.209681 59 58 53
-0.771925 0.486689 3.606515 68 63 44
-1.560176 0.732368 6.276149 155 148 132
-0.985768 0.542582 4.336116 215 209 193
-1.199939 0.601684 5.065278 218 213 193
-0.839928 0.473205 3.854106 176 169 127
-2.836466 1.001408 10.662823 168 161 107
-3.577916 1.682502 13.032295 65 66 61
-3.431963 1.603900 12.551352 65 66 61
-1.993547 1.024643 7.713656 63 63 61
-0.485060 0.434561 2.631594 58 58 56
-1.775751 0.917841 6.990724 57 57 57
-3.490626 1.502985 12.810996 52 55 48
-3.059080 1.329003 11.359715 48 51 44
-2.554883 1.118905 9.667527 49 48 44
-3.477434 1.373747 12.828667 54 47 29
-2.833510 1.146040 10.647197 109 103 87
-2.332873 0.970813 8.950241 198 192 178
-2.543362 1.006038 9.682960 214 211 192
-0.621135 0.416402 3.125767 205 200 178
-0.761069 0.436048 3.614771 184 179 139
-3.554097 1.663396 13.040029 50 51 46
-1.619585 0.843667 6.511674 51 51 49
-2.535745 1.088750 9.675412 54 52 39
-3.028707 1.217234 11.379439 72 66 50
-2.176554 0.927653 8.467728 179 176 161
-1.467038 0.692328 6.040483 216 212 200
-2.102921 0.877860 8.228594 216 212 200
-0.474897 0.374445 2.640757 208 205 188
-1.179615 0.562771 5.074429 199 198 170
-0.895897 0.469505 4.103412 203 203 169
-1.532985 0.767250 6.278581 57 57 49
-2.446124 1.035579 9.440404 55 52 37
-1.951431 0.861678 7.741906 142 138 126
-3.355946 1.271414 12.606669 215 212 203
-0.822493 0.481716 3.857229 200 198 185
-0.962410 0.517456 4.344421 170 168 153
-2.083969 0.825130 8.238982 183 182 162
-0.749265 0.431821 3.618012 210 212 190
-0.990604 0.953783 5.074579 227 224 217
-0.986414 0.912740 5.080191 227 224 217
-2.193784 1.586168 9.961374 228 225 218
-0.554397 0.584584 3.384418 230 227 220
-1.043131 0.994792 5.319646 227 224 217
-0.799335 0.821100 4.348355 227 224 217
-1.520557 1.242593 7.275847 228 225 218
-0.976671 0.897388 5.084205 229 226 219
-1.033445 0.899914 5.332619 228 225 218
-1.034654 0.995912 5.321505 227 224 217
-2.775774 2.114430 12.385434 227 224 217
-0.787523 0.773291 4.356515 227 224 217
-1.922236 1.447135 8.992671 226 223 216
-1.018806 0.840657 5.342734 231 228 221
-1.085952 1.037083 5.566843 227 224 217
-0.899469 0.846799 4.845997 227 224 217
-0.483225 0.587807 3.138727 223 220 213
-1.013851 0.876278 5.339875 229 226 219
-1.006255 0.886022 5.340555 227 224 217
-0.241361 0.431842 2.164982 229 226 219
-1.062299 0.893587 5.588573 230 227 222
-0.238535 0.435468 2.165235 227 224 219
-1.869273 1.363681 9.014491 230 227 222
-0.644232 0.648049 3.880212 232 229 222
-1.159251 0.953156 6.083138 230 227 220
-1.848582 1.306115 9.025832 231 228 221
-1.050408 1.041777 5.574637 227 224 217
-1.205910 0.977332 6.331480 231 228 221
-1.089235 0.892876 5.844341 231 228 221
-0.804588 0.822659 4.608945 226 225 220
-0.287358 0.482503 2.410491 228 227 222
-1.136817 0.926094 6.091446 231 228 221
-1.824467 1.505271 9.009009 226 225 220
-0.397750 0.600566 2.895309 226 223 216
-0.108353 0.350887 1.681274 228 228 220
-1.121816 1.068190 6.078927 225 224 219
-1.739030 1.471564 8.770825 225 224 219
-1.288278 1.159894 6.815584 226 225 220
-1.399376 1.222239 7.306524 227 226 221
-1.958900 1.573464 9.755821 227 226 221
-1.225560 1.058493 6.579717 229 228 223
-2.114709 1.560803 10.506748 230 229 224
-1.167946 1.107510 6.325683 225 224 219
-1.166895 1.097218 6.327090 225 224 219
-0.552594 0.677665 3.636335 226 225 220
-2.054384 1.648302 10.249008 227 226 221
-2.208369 1.629971 11.001002 228 227 222
-1.213257 1.146939 6.572619 225 224 219
-1.200140 1.018440 6.590189 227 226 221
-1.801088 1.351889 9.293787 229 228 223
-2.697139 2.266120 13.172726 227 224 217
-0.100467 0.366379 1.681373 228 227 222
-1.894903 1.418503 9.788293 229 228 223
-1.252495 1.243543 6.814527 226 223 216
-1.677769 1.435697 8.789219 227 226 221
-1.840073 1.688705 9.508651 226 223 216
-1.947205 1.752841 10.000318 227 224 217
-1.453980 1.355174 7.802730 228 225 218
-1.987725 1.657105 10.263626 228 227 222
-0.365083 0.541608 2.909612 228 227 222
-1.333748 1.279383 7.315447 227 224 217
-1.529599 1.243545 8.321608 235 234 229
-1.056906 1.106786 6.089774 225 222 215
-1.375417 1.319715 7.563134 228 225 218
-0.145875 0.419401 1.926752 228 225 218
-0.937895 0.910016 5.615854 230 227 220
-0.513685 0.630729 3.650743 234 231 224
-1.259588 1.266736 7.072245 225 222 215
-0.993139 1.058943 5.848110 225 222 215
-2.476503 2.136832 12.714993 228 225 218
-0.669130 0.767769 4.384866 228 225 218
-1.456299 1.400703 8.059046 228 225 218
-1.927989 1.733737 10.268970 229 226 219
-0.818367 0.868379 5.124553 232 229 222
-0.104434 0.613921 1.652514 137 131 35
-1.985378 3.256515 9.821722 133 128 36
-1.705781 2.838634 8.624370 127 126 61
-1.150190 2.038158 6.224839 148 146 121
-1.149139 2.027866 6.226247 155 152 133
-0.597776 1.268804 3.821054 161 159 144
-1.421982 2.379586 7.432646 166 164 149
-0.648132 1.297885 4.067976 188 186 173
-0.102584 0.618982 1.652377 143 134 41
-0.102341 0.616605 1.652701 140 131 36
-0.155920 0.681321 1.894848 121 118 67
-0.703130 1.440338 4.301019 126 123 90
-0.537716 1.200377 3.580844 152 150 129
-0.646377 1.344530 4.063124 160 157 142
-1.464401 2.455706 7.676120 165 162 147
-1.625272 2.651168 8.402380 171 167 155
-2.651700 3.963290 12.991881 185 183 170
-0.100248 0.619290 1.652889 141 130 38
-2.441388 3.941631 11.995594 131 126 44
-0.480012 1.146886 3.338397 119 114 48
-0.750632 1.517476 4.543187 117 112 80
-0.586986 1.282645 3.822019 130 126 101
-1.885190 3.053916 9.606049 160 156 144
-2.641328 4.075921 12.981602 164 160 148
-2.585002 3.980229 12.743594 167 163 151
-0.582609 1.239765 3.827882 174 172 159
-1.232166 2.238410 6.707040 133 127 41
-0.960952 1.841673 5.505338 121 117 46
-2.039493 3.366745 10.320605 112 107 52
-0.796518 1.586930 4.786601 116 112 87
-1.334179 2.333697 7.196390 138 135 116
-0.308377 0.912688 2.619028 106 101 45
-1.375864 2.410759 7.439930 123 120 103
-1.851852 3.041977 9.615203 155 151 140
-1.796940 2.952010 9.376218 159 155 143
-0.890535 1.688043 5.277167 164 157 147
-1.846914 2.993606 9.621817 166 162 150
-1.420160 2.396731 7.693135 169 167 154
-0.622414 1.301281 4.073616 174 172 159
-1.316779 2.396591 7.193369 135 129 43
-0.251620 0.840025 2.378522 128 122 46
-0.516439 1.214759 3.584204 95 92 49
-0.568300 1.278905 3.826817 107 104 87
-2.155302 3.508579 11.063469 144 141 126
-1.888905 3.118384 9.859901 151 147 136
-1.887217 3.101844 9.862163 156 152 140
-1.831681 3.159030 9.606721 128 122 46
-0.511411 1.221209 3.584654 116 110 48
-1.406770 2.515172 7.682907 98 96 48
-0.613562 1.342233 4.071068 138 135 120
-0.976461 1.818436 5.766324 163 161 148
-1.561111 2.844635 8.395578 134 130 33
-0.296871 0.918305 2.621089 128 123 42
-0.505800 1.221950 3.585884 118 113 47
-1.969423 3.358391 10.337958 99 97 46
-1.122896 2.037931 6.493254 160 158 145
-1.071377 2.069427 6.239769 120 116 43
-0.966560 1.906017 5.758762 108 107 51
-0.550865 1.287416 3.829940 91 88 53
-1.943481 3.273778 10.353580 132 128 117
-0.649575 1.390989 4.319130 154 152 139
-0.395030 1.103503 3.101198 134 127 36
-0.082930 0.611944 1.657774 133 128 37
-0.236995 0.838281 2.382144 121 117 43
-0.545470 1.294336 3.830423 113 113 53
-2.028930 3.425094 10.840488 122 118 106
-1.002058 2.014765 6.000175 134 129 38
-2.482154 4.230456 13.001445 126 123 46
-2.275653 3.901829 12.038900 111 111 47
-0.130647 0.678998 1.901029 103 102 58
-2.114685 3.595666 11.325152 86 81 62
-2.112741 3.576626 11.327756 101 97 85
-1.548940 2.712822 8.675297 142 140 127
-0.890787 1.860103 5.519691 135 130 38
-1.497316 2.767679 8.419201 127 124 47
-2.194915 3.728374 11.815383 86 83 68
-0.728893 1.532684 4.808559 144 142 129
-1.744835 3.252206 9.616547 135 129 33
-1.743189 3.236082 9.618752 134 130 33
-1.182964 2.317889 6.971592 133 129 40
-1.431838 2.678684 8.182581 116 114 53
-1.530854 2.817778 8.667691 107 107 55
-1.124684 2.162406 6.740788 77 74 57
-1.827527 3.396834 10.104856 135 129 33
-2.170054 3.872646 11.804927 135 129 41
-2.315506 4.063389 12.535331 120 116 52
-0.122412 0.680085 1.902835 109 108 54
-0.864708 1.781074 5.534716 74 72 59
-0.763031 1.607787 5.054087 136 134 121
-0.940789 -0.353290 7.591688 211 209 196
-0.859372 -0.328108 7.083921 211 209 196
-0.698014 -0.263287 6.066412 210 208 195
-0.777074 -0.311552 6.577334 209 207 194
-0.696083 -0.282204 6.068998 208 206 193
-0.695117 -0.291662 6.070292 208 206 193
-0.614380 -0.259815 5.561614 207 205 192
-0.932244 -0.436996 7.603133 208 206 193
-0.811622 -0.384496 6.839470 209 207 194
-0.770771 -0.373301 6.585778 209 207 194
-0.570305 -0.280205 5.312240 210 208 195
-0.490207 -0.242109 4.802708 207 205 192
-0.290974 -0.136931 3.527519 204 202 187
-0.882976 -0.508258 7.360716 199 197 184
-0.605576 -0.346067 5.573408 197 193 181
-0.210518 -0.102338 3.018466 193 187 171
-1.604328 3.005047 9.153347 130 125 44
-1.306204 2.528453 7.704961 120 117 50
-1.354283 2.592129 7.948513 110 108 51
-0.365595 1.053032 3.113786 105 102 67
-0.562126 1.349026 4.082348 99 95 70
-0.118527 0.669276 1.904965 83 78 59
-0.953158 1.921141 6.022191 84 84 74
-0.264933 0.881550 2.632716 108 106 94
-1.343497 2.486467 7.962961 130 128 115
-0.968768 -0.369838 7.848999 211 209 196
-1.046882 -0.419244 8.360272 210 208 195
-0.886949 -0.356722 7.342688 209 207 194
-0.806564 -0.329565 6.834457 208 206 193
-1.517572 -0.696056 11.425226 208 206 193
-0.211143 -0.052707 3.012719 208 206 193
-1.038793 -0.498491 8.371107 208 206 193
-0.840489 -0.404538 7.096967 208 206 193
-0.681960 -0.328268 6.077503 208 206 193
-0.209322 -0.070544 3.015158 207 205 192
-0.169603 -0.052321 2.760408 208 206 193
-0.522179 -0.264250 5.059715 208 206 194
-0.834811 -0.460162 7.104573 208 206 193
-0.755404 -0.423424 6.595032 205 203 188
-0.011579 0.028900 1.740267 201 199 184
-0.050387 0.001759 1.996237 197 194 179
-1.179825 -0.746168 9.414009 189 184 162
-0.117778 0.689189 1.902893 136 129 39
-1.687421 3.161741 9.640201 132 126 42
-1.685776 3.145617 9.642405 122 118 47
-1.733105 3.206014 9.886503 111 109 48
-0.165570 0.754122 2.146371 105 103 54
-0.213763 0.822974 2.389312 103 99 70
-0.164587 0.744493 2.147687 94 89 69
-1.379152 2.561370 8.208156 117 115 102
-0.405912 1.092306 3.361909 134 132 119
-0.995929 -0.386277 8.106489 210 208 195
-1.073182 -0.435992 8.617999 208 206 193
-0.914844 -0.374102 7.600112 208 206 193
-0.835234 -0.347470 7.091759 206 204 191
-1.577982 -0.733116 11.939253 207 205 192
-0.637417 -0.269079 5.819261 207 205 192
-0.988094 -0.463024 8.116983 207 205 192
-0.869716 -0.412931 7.353066 207 205 192
-0.712611 -0.338960 6.333528 206 204 191
-0.439029 -0.196273 4.547526 206 204 191
-0.786202 -0.424549 6.849942 208 206 194
-0.319881 -0.153726 3.784640 205 203 190
-0.745290 -0.422088 6.597250 203 201 186
-1.357990 -0.871957 10.696458 194 189 169
-1.426888 2.762750 8.436252 124 120 47
-0.162744 0.757748 2.146624 112 111 46
-0.596284 1.412132 4.329225 90 87 68
-0.787055 1.684226 5.301833 99 97 84
-0.241717 0.733019 2.654911 207 204 195
-1.732400 2.562121 10.483310 207 204 195
-1.823760 2.658739 10.975005 209 206 197
-1.914951 2.753690 11.466928 210 207 198
-0.747435 1.296090 5.354904 213 210 201
-1.177920 -0.474573 9.383811 209 207 194
-0.982052 -0.397408 8.110995 207 205 192
-0.397000 -0.140918 4.289127 206 204 191
-0.705931 -0.308054 6.331605 206 204 191
-0.627608 -0.276947 5.822446 207 205 192
-0.549455 -0.244174 5.313058 206 204 191
-0.471473 -0.209735 4.803443 205 203 190
-0.775679 -0.423159 6.852250 206 204 191
-0.697866 -0.387054 6.342407 203 201 188
-0.352004 -0.182518 4.042362 201 199 184
-0.259616 0.947808 2.626485 138 129 38
-1.461288 2.841618 8.681293 128 122 48
-0.544841 1.371200 4.083895 115 112 45
-0.303148 0.979134 2.874752 104 103 59
-0.637389 1.487582 4.573082 97 95 74
-1.208925 2.345016 7.486445 85 83 70
-0.490431 1.233314 3.850198 125 123 110
-1.624614 2.465984 9.995407 206 203 194
-1.807726 2.679309 10.976439 208 205 196
-2.034585 2.926060 12.205451 208 205 196
-1.422941 2.070838 9.039236 215 212 203
-1.471327 -0.616139 11.427040 209 207 194
-0.735567 -0.316500 6.587614 205 203 190
-0.657935 -0.286752 6.078446 205 203 190
-0.618722 -0.275774 5.824394 204 202 189
-0.541388 -0.243109 5.314827 203 201 188
-0.731365 -0.357667 6.593243 203 201 188
-0.692194 -0.346272 6.339134 204 202 189
-1.110041 -0.599280 9.151783 205 203 190
-0.880354 -0.478620 7.619982 206 204 191
-0.803148 -0.444706 7.110245 204 202 187
-0.574311 -0.315714 5.577305 201 199 186
-0.383892 -0.205492 4.299483 200 198 185
-0.118168 -0.042732 2.509376 202 198 186
-1.439731 -0.925656 11.469362 200 197 178
-0.455943 -0.289908 4.816126 189 188 167
-1.542659 2.997695 9.168620 129 123 47
-0.394630 1.136706 3.359542 110 108 51
-2.300567 4.165428 13.051310 103 102 56
-1.791691 2.699879 10.977874 207 204 195
-1.881414 2.796712 11.469928 209 206 197
-1.109115 -0.467286 9.137107 207 205 192
-0.955605 -0.406879 8.118257 207 205 192
-0.840401 -0.362271 7.354215 205 203 190
-0.725453 -0.315165 6.589832 204 202 189
-1.141093 -0.545082 9.400392 204 202 189
-0.988221 -0.478426 8.380688 203 201 188
-0.835689 -0.408437 7.360528 202 200 187
-0.683497 -0.335115 6.339912 201 199 186
-0.607067 -0.301726 5.830052 201 199 186
-0.267129 -0.112327 3.530327 202 200 187
-0.266588 -0.117619 3.531051 202 200 187
-0.491548 -0.260205 5.066432 201 199 186
-0.152886 -0.058308 2.764999 199 197 185
-0.189971 -0.086066 3.021442 199 195 186
-0.826264 -0.500768 7.373153 200 196 185
-0.787672 -0.487761 7.118727 202 198 186
-0.637054 -0.399026 6.096004 201 198 181
-1.643949 -1.093790 13.012484 194 193 173
-0.635123 -0.417942 6.098590 189 188 168
-1.061780 2.306011 6.739317 139 130 37
-1.622392 3.153988 9.656305 128 126 43
-0.058606 0.605523 1.664195 120 118 44
-0.058363 0.603146 1.664520 112 111 47
-0.058121 0.600770 1.664845 104 100 52
-0.669222 1.556359 4.819863 98 98 72
-0.715466 1.622388 5.063579 88 87 67
-0.994426 2.033193 6.523876 95 93 81
-1.998847 2.971906 12.208649 210 207 198
-1.170190 -0.501901 9.650702 208 206 193
-0.980634 -0.423881 8.376310 205 203 190
-0.753946 -0.322616 6.845996 203 201 188
-1.315564 -0.625754 10.678615 200 201 187
-0.976589 -0.463504 8.381728 200 201 185
-0.563521 -0.253098 5.572767 200 198 183
-0.562641 -0.261723 5.573947 201 198 183
-1.009888 -0.524289 8.642784 201 198 183
-0.225166 -0.084769 3.275049 201 198 183
-0.224668 -0.089645 3.275716 198 196 181
-1.452313 -0.834100 11.718082 198 196 181
-1.041499 -0.601615 8.906102 198 196 181
-0.928672 -0.545922 8.140253 197 195 180
-0.371033 -0.203794 4.302303 197 195 182
-0.333319 -0.186258 4.047160 197 195 182
-0.517713 -0.314856 5.328467 197 195 182
-0.369029 -0.223421 4.304986 200 199 181
-0.368362 -0.229963 4.305881 196 195 177
-0.105194 0.702173 1.904375 137 130 39
-1.700487 3.310497 10.144350 131 126 44
-1.651828 3.216748 9.904327 124 121 44
-0.056028 0.603455 1.665032 116 112 48
-0.707399 1.623454 5.065348 97 96 75
-0.566797 1.394868 4.338078 81 80 62
-1.380373 -0.591275 11.183540 211 209 196
-1.117931 -0.481725 9.398668 206 204 191
-1.525500 -0.701288 12.209950 205 203 190
-1.374925 -0.644646 11.190838 203 201 188
-0.514673 -0.264539 5.323502 198 195 178
-0.477028 -0.250390 5.068725 198 195 178
-0.660055 -0.372052 6.349570 197 194 179
-0.401993 -0.219593 4.558831 199 196 181
-0.841436 -0.509838 7.632619 196 192 180
-0.254025 -0.137416 3.536227 197 193 181
-0.143701 -0.069387 2.768400 196 193 178
-0.143289 -0.073430 2.768952 196 193 178
-0.580988 -0.380755 5.845076 194 191 174
-1.873814 2.900722 11.721970 204 201 192
-1.362889 -0.588966 11.187374 203 201 188
-1.066490 -0.461657 9.146455 202 200 187
-0.071945 0.024844 2.250580 201 199 186
-0.475734 -0.187042 5.061881 202 200 187
-0.401548 -0.156060 4.551767 202 199 184
-0.694059 -0.321449 6.597893 203 200 185
-0.436737 -0.190198 4.809374 205 199 183
-0.653374 -0.341145 6.347647 201 195 179
-0.069324 -0.000832 2.254091 201 196 177
-0.469370 -0.249379 5.070405 200 195 176
-0.432220 -0.234451 4.815425 196 193 178
-1.012468 -0.612011 8.914074 197 194 179
-0.938494 -0.578946 8.403675 194 191 176
-0.900919 -0.568184 8.149264 194 190 178
-0.718688 -0.459043 6.869646 193 189 177
-0.681452 -0.444949 6.614780 192 189 174
-0.572102 -0.379582 5.847025 192 189 174
-0.535122 -0.362987 5.591817 191 188 171
-0.702738 1.363183 5.357802 208 205 196
-0.038501 0.478124 1.683277 208 205 196
-1.430894 2.124802 9.555278 215 212 203
-0.215270 -0.038987 3.272201 204 202 189
-0.141533 -0.011739 2.762403 203 201 188
-0.504404 -0.204947 5.319183 200 198 185
-0.430995 -0.174490 4.808946 198 195 180
-1.008702 -0.511902 8.903661 205 199 183
-0.645686 -0.320114 6.347075 203 197 181
-0.680793 -0.350988 6.604333 203 196 178
-0.860109 -0.468360 7.885563 200 195 176
-0.534569 -0.284241 5.583062 197 192 173
-0.461713 -0.248367 5.072084 197 192 173
-0.137406 -0.052167 2.767931 195 192 175
-1.106378 -0.679436 9.685677 191 188 173
-1.033096 -0.647729 9.175269 191 188 173
-0.816712 -0.518692 7.639409 189 185 173
-0.743940 -0.481986 7.128317 189 185 173
-0.063877 -0.022883 2.257855 188 184 172
-0.063549 -0.026092 2.258294 187 184 169
-0.384053 -0.259540 4.567539 186 183 168
-0.684577 1.269425 5.372634 210 207 198
-0.640013 -0.279332 6.343802 201 199 186
-0.603129 -0.269928 6.089383 200 198 183
-0.314866 -0.127947 4.044903 202 199 182
-1.386707 -0.749938 11.723951 202 196 180
-1.349100 -0.747616 11.470500 200 195 176
-1.168922 -0.659012 10.192718 198 193 174
-1.060412 -0.609800 9.426589 194 191 172
-0.881000 -0.513699 8.147782 191 188 169
-1.341666 -0.820443 11.480458 192 189 172
-1.126845 -0.700480 9.945255 186 183 166
-0.238961 -0.130062 3.538925 190 187 172
-0.875777 -0.564863 8.154778 186 182 170
-0.662275 -0.431985 6.617809 188 184 172
-0.590577 -0.392888 6.106196 185 182 167
-0.448487 -0.301901 5.081222 186 183 168
-0.835316 -0.590500 7.905150 185 182 167
-1.524261 -0.687391 12.732665 218 216 203
-1.237433 -0.563879 10.689932 211 209 196
-0.880181 -0.396918 8.134798 206 204 191
-0.665818 -0.296859 6.601733 204 202 189
-1.017962 -0.513858 9.163710 200 198 183
-1.511834 -0.809130 12.749311 200 197 180
-1.545102 -0.849894 13.008115 199 193 177
-1.507692 -0.849709 12.754860 196 190 174
-0.906295 -0.507764 8.403185 192 189 172
-0.552828 -0.303726 5.842981 191 188 169
-0.235381 -0.113498 3.537895 185 182 163
-1.358900 -0.840638 11.740697 184 181 164
-0.163221 -0.087053 3.027818 186 183 168
-0.617204 -0.406426 6.363484 185 182 167
-0.511453 -0.342379 5.595035 181 178 163
-0.475701 -0.325946 5.339558 181 178 161
-0.892813 -0.639842 8.421244 163 160 143
-1.956431 3.019012 12.737261 208 205 196
-0.073794 0.530823 1.931063 209 206 197
-0.073509 0.528030 1.931444 211 208 199
-0.762182 -0.340244 7.370049 215 213 200
-0.585503 -0.258014 6.092167 207 205 192
-0.792442 -0.406414 7.632425 201 195 181
-1.245312 -0.683841 10.963619 198 192 178
-0.999326 -0.555354 9.172756 194 187 171
-1.555370 -0.909874 13.274474 191 185 169
-1.483609 -0.887656 12.764781 189 183 167
-0.299699 -0.156985 4.051731 187 181 165
-1.544589 -1.015489 13.288916 185 182 167
-0.850636 -0.561543 8.160291 187 184 169
-0.642046 -0.429314 6.622245 182 179 164
-0.640996 -0.439606 6.623652 180 177 160
-0.502096 -0.349884 5.598073 164 161 144
-0.983092 -0.714387 9.194501 122 119 100
-0.453583 1.051728 4.141312 205 202 193
-1.672094 2.590918 11.280174 210 207 198
-0.280717 0.792451 3.163065 212 209 200
-0.544286 -0.210961 5.834515 221 219 207
-1.231785 -0.646839 10.962612 206 200 186
-1.504403 -0.844519 13.017041 197 189 176
-1.329899 -0.761310 11.738539 195 185 173
-1.155820 -0.673934 10.459467 193 185 172
-0.328030 -0.178223 4.309489 191 184 168
-0.121514 -0.050068 2.771416 188 185 168
-0.734346 -0.500326 7.394630 183 180 165
-0.664977 -0.462802 6.882650 172 169 152
-0.425514 -0.298867 5.086260 129 126 107
-0.492739 -0.357390 5.601112 80 77 58
-0.486959 1.088041 4.391395 209 206 197
-0.461555 -0.224246 5.331396 211 205 193
-1.586388 -0.902770 13.790402 203 197 183
-0.356252 -0.192394 4.566475 197 191 177
-0.423424 -0.243311 5.080481 194 188 174
-1.198749 -0.800947 10.987737 194 188 172
-0.926808 -0.629159 8.936071 196 190 174
-1.262659 -0.883819 11.506112 185 179 163
-1.193429 -0.853068 10.994863 144 139 120
-0.821577 -0.596596 8.171052 80 75 56
-0.484262 -0.356271 5.602971 69 66 47
-0.025701 0.491857 1.684726 203 198 192
-0.491634 -0.199897 5.583601 221 218 209
-0.658140 -0.320816 6.868231 224 220 211
-0.555686 -0.273248 6.100869 223 219 208
-0.487232 -0.243023 5.589498 217 213 202
-0.452649 -0.231390 5.334288 210 206 194
-0.754745 -0.425674 7.643426 209 203 189
-0.551824 -0.311082 6.106042 207 201 187
-0.517284 -0.299032 5.850775 203 197 183
-0.449298 -0.264224 5.338777 198 192 180
-1.014654 -0.682819 9.707541 196 190 174
-0.579392 -0.391424 6.370647 186 181 162
-1.411362 -1.001495 12.794546 144 139 120
-1.376014 -0.997360 12.540361 94 91 72
-0.576368 -0.421049 6.374698 75 72 53
-1.504723 -1.138137 13.574087 130 127 108
-0.105357 0.602686 2.177559 205 200 194
-1.160070 1.929942 8.592704 212 209 200
-1.286398 -0.642317 11.735301 221 218 209
-0.514859 -0.234566 5.844070 221 218 209
-0.480516 -0.224653 5.588998 221 216 210
-0.946920 -0.504475 9.179289 221 217 208
-0.512090 -0.261691 5.847779 221 217 208
-0.810799 -0.452573 8.157327 221 217 206
-0.576744 -0.321017 6.363323 220 216 204
-0.542529 -0.309854 6.108081 213 209 197
-0.309409 -0.169133 4.312824 206 202 190
-0.639964 -0.394384 6.880788 196 192 180
-0.902076 -0.597432 8.938283 201 194 178
-1.494548 -1.027643 13.564003 188 182 166
-0.075404 -0.037085 2.518754 146 141 122
-1.523060 -1.094676 13.826885 94 89 70
-0.533839 -0.394980 6.119720 139 136 117
-0.008360 -0.001182 2.006412 193 190 173
-1.404621 -0.671590 12.758902 221 218 209
-0.704292 -0.344296 7.384064 221 218 209
-0.339997 -0.147931 4.565265 220 217 210
-1.125327 -0.669373 10.728090 219 217 205
-1.418778 -0.875182 13.040554 218 214 202
-0.987722 -0.648269 9.709950 204 196 183
-0.692510 -0.459710 7.399845 196 189 173
-1.375624 -0.955648 12.797743 156 151 132
-1.178296 -0.835039 11.258370 96 91 72
-0.753976 -0.542134 7.918743 81 78 59
-0.556959 -0.418486 6.378954 190 187 170
-1.055322 -0.513279 10.202881 221 218 209
-0.398361 -0.184721 5.079740 220 217 210
-0.527800 -0.269565 6.106984 219 216 209
-0.785657 -0.449253 8.162840 219 216 207
-0.295214 -0.180520 4.317433 198 192 178
-0.294547 -0.187062 4.318328 170 164 148
-1.323508 -0.930002 12.545058 104 98 82
-0.805997 -0.588219 8.435752 141 138 121
-0.452117 -0.334542 5.608047 190 187 170
-0.897208 1.770777 7.100246 197 192 186
-0.263812 -0.090163 4.052597 221 218 209
-0.360017 -0.150166 4.822825 221 218 209
-0.359264 -0.157542 4.823834 220 217 208
-1.195497 -0.653521 11.495858 219 219 211
-1.161489 -0.652518 11.241713 218 218 210
-0.581752 -0.317047 6.623699 219 216 209
-0.869279 -0.507719 8.935842 218 215 208
-0.824698 -0.610296 8.695860 187 184 167
-0.475279 -0.357631 5.867224 211 208 193
-0.948302 -0.736044 9.729086 231 227 215
-1.730041 3.110223 12.255997 191 188 179
-0.925472 1.830190 7.348919 197 194 185
-0.289598 0.882384 3.412835 202 197 191
-0.437665 1.080445 4.403797 208 201 195
-0.276695 0.910908 3.412638 193 190 181
-0.160193 0.723299 2.675101 197 194 185
-0.247079 1.390633 4.151438 57 56 10
-0.246411 1.384091 4.152333 52 50 9
-0.333076 1.608650 4.892689 48 48 10
-0.360511 1.669266 5.141421 38 39 7
-0.330690 1.585273 4.895885 32 32 4
-0.329894 1.577481 4.896951 28 28 4
-0.293425 1.428359 4.660321 100 99 68
-0.121834 0.996275 3.177279 83 82 54
-0.206002 1.196378 3.920979 96 91 71
-0.204752 1.184127 3.922654 139 133 121
-0.442155 1.936929 5.878090 58 57 9
-0.354120 1.686749 5.140946 48 48 10
-0.267305 1.448527 4.402166 44 44 8
-0.609991 2.356623 7.363409 40 41 7
-0.379299 1.729335 5.392240 29 29 5
-0.774310 2.741862 8.853440 26 25 4
-0.853107 2.901548 9.602958 59 58 30
-0.509932 1.988652 6.642371 80 76 49
-0.144566 1.062454 3.426485 81 77 52
-0.309510 1.453820 4.915677 180 174 162
-0.461237 2.016132 6.126682 59 58 10
-0.488563 2.083815 6.374642 54 53 9
-0.484361 2.042648 6.380271 34 35 4
-0.173969 1.202127 3.665836 31 31 5
-0.482260 2.022065 6.383085 28 27 6
-0.397099 1.787847 5.643466 25 24 3
-0.893319 3.048705 10.100930 54 53 25
-0.610024 2.273614 7.634764 75 71 44
-0.883189 2.949462 10.114500 100 94 72
0.024488 0.685333 1.936647 50 50 12
0.024773 0.682540 1.937029 46 46 10
-0.280714 1.519737 4.652987 42 43 9
-0.528621 2.184752 6.877865 31 31 5
-0.499815 2.098514 6.632345 28 27 6
-0.215770 1.275419 4.171770 85 81 56
-0.321227 1.524706 5.166932 131 125 109
-0.320389 1.516498 5.168054 206 200 186
-0.939332 3.072999 10.873403 249 241 228
-0.801645 3.049067 9.336370 66 64 13
-0.689851 2.721443 8.351531 60 59 11
0.026948 0.688488 1.936867 53 54 10
0.027233 0.685695 1.937249 50 50 12
0.000087 0.759736 2.184535 43 44 10
0.028088 0.677316 1.938395 35 36 5
-0.544991 2.261779 7.127337 31 31 5
-0.516552 2.175071 6.881784 29 28 7
-1.193668 4.011167 13.065955 25 24 3
-0.267443 1.461690 4.662645 36 34 11
-0.371020 1.708817 5.658491 75 71 46
-0.155172 1.129390 3.678445 107 102 82
-0.378747 1.872744 5.638186 66 64 13
-0.404973 1.941839 5.886244 60 59 11
-0.404008 1.932381 5.887537 53 54 10
-0.726331 2.836113 8.854042 44 44 8
-0.778813 2.974598 9.350119 40 41 9
-0.319337 1.666384 5.151389 36 37 6
-0.613024 2.477399 7.873065 29 29 5
-0.424058 1.940976 6.143868 25 24 3
-0.315985 1.633550 5.155879 25 24 3
-0.285242 1.520201 4.913871 55 53 28
-1.079774 3.669059 12.345239 66 65 37
-0.227163 1.326879 4.425292 111 106 86
-0.396643 1.952525 5.886989 66 65 11
-0.421409 2.011383 6.136545 56 55 11
-0.420401 2.001508 6.137895 53 51 12
-0.419393 1.991633 6.139245 47 44 9
-0.816924 3.129632 9.847695 42 42 8
-0.337797 1.743558 5.400355 37 38 6
-0.468244 2.102683 6.639268 27 29 5
-0.440752 2.017116 6.393365 25 24 3
-1.138139 3.887520 13.092911 62 61 33
-0.413721 2.032415 6.135973 65 64 10
-0.439042 2.100785 6.384325 61 59 10
0.035182 0.689576 1.938673 58 55 10
-0.331081 1.761928 5.399856 49 45 8
-0.879558 3.361462 10.592859 43 43 7
-0.329320 1.744678 5.402214 38 39 5
-0.067691 0.978594 2.929957 33 34 3
0.063168 0.595112 1.693889 24 26 4
-0.454441 2.071948 6.645969 26 25 5
-0.295661 1.594637 5.165029 44 42 17
-0.063139 0.934001 2.936055 70 66 37
-0.318755 1.641174 5.416367 84 80 51
-0.429979 2.112413 6.385136 65 64 8
-0.817737 3.276613 10.092918 61 59 8
-0.324365 1.780298 5.399356 59 56 11
-0.451570 2.148296 6.638027 50 46 8
-0.939735 3.593616 11.338562 46 44 6
-0.346552 1.822013 5.651450 40 40 4
-0.371294 1.888771 5.900119 35 36 4
-0.370328 1.879313 5.901413 28 31 2
-0.676327 2.769455 8.873274 25 27 3
-0.443232 2.171102 6.637407 60 58 10
-0.340435 1.850313 5.649689 55 52 11
-0.187210 1.378648 4.166812 51 47 9
-0.972115 3.749407 11.837394 47 45 6
-0.362964 1.899458 5.900865 41 41 3
-0.387255 1.965853 6.149681 36 37 3
-0.712461 2.921373 9.371664 26 28 4
-0.307965 1.703790 5.411829 26 28 6
-0.131781 1.178768 3.678352 23 23 0
-0.304443 1.669289 5.416546 33 33 9
-0.369110 1.788102 6.173986 123 118 98
-0.584412 2.653646 8.121878 63 61 10
0.068719 0.610296 1.693476 56 53 12
-0.355600 1.919602 5.900316 52 48 10
-1.027789 3.982156 12.584085 48 46 5
-0.129084 1.208055 3.675679 36 37 3
-0.302130 1.730785 5.410150 29 32 1
-0.598388 2.623058 8.384052 27 30 3
-0.794749 3.206700 10.368186 25 28 1
-0.620282 2.670051 8.635619 26 29 2
-0.321396 1.752026 5.665238 27 26 6
-0.535807 2.344997 7.906088 96 92 65
-0.325432 1.879785 5.649878 68 67 11
-0.349201 1.949205 5.898475 64 62 11
-0.369861 1.988166 6.151237 49 47 6
0.022822 0.756233 2.190254 43 44 4
-0.392282 2.044378 6.401640 36 38 1
-0.635178 2.789542 8.880645 30 33 2
-0.569699 2.474958 8.407481 104 100 73
-0.375473 1.879712 6.424156 107 102 80
-0.398137 1.938301 6.674234 111 106 84
-0.373372 1.859129 6.426970 113 108 88
-0.170593 1.407365 4.167464 69 68 12
-0.364188 2.028948 6.147964 65 63 12
-0.313777 1.853833 5.655535 57 54 13
0.025321 0.763068 2.190068 54 50 12
0.025649 0.759859 2.190507 49 47 6
-0.647992 2.896766 9.127543 43 44 2
-0.430223 2.197747 6.899444 36 38 1
-0.668940 2.942617 9.379460 30 34 1
-0.640400 2.822395 9.137712 23 25 1
-0.579785 2.547327 8.658950 99 95 66
-0.410918 2.008625 6.925303 113 108 86
-0.594652 2.829969 8.623578 69 68 12
-0.664839 3.051637 9.368120 65 64 10
-0.138371 1.310850 3.923903 59 56 11
-0.137746 1.304725 3.924740 55 52 9
-0.089174 1.139500 3.430765 45 46 4
-0.442909 2.275261 7.149724 38 40 1
-0.979662 3.961507 12.859682 27 30 3
-0.086472 1.113037 3.434383 23 25 1
-0.401120 2.021193 6.926179 106 101 79
-0.422880 2.079057 7.176551 111 106 84
-0.698386 3.226993 9.864471 70 69 12
-0.673276 3.132246 9.619046 66 65 9
-0.389521 2.167343 6.650410 61 59 11
-0.645129 3.007749 9.377688 57 54 9
-0.711762 3.206791 10.125615 48 46 5
-0.477984 2.429007 7.648155 40 40 2
-0.453555 2.340925 7.401818 35 36 4
-0.082352 1.124309 3.434076 32 32 4
-0.520357 2.541632 8.149517 30 30 6
-0.726359 3.198546 10.385123 25 25 1
-0.950278 3.879756 12.875788 24 23 2
-0.703949 3.291640 10.117871 67 66 10
-0.149301 1.390285 4.174377 62 60 11
-0.698884 3.242018 10.124656 58 56 8
0.035112 0.761108 2.192582 52 51 7
-0.741191 3.362127 10.625190 49 47 8
-0.488622 2.506792 7.898884 41 41 5
-0.487317 2.494000 7.900633 36 37 5
-0.554154 2.707245 8.646910 32 32 6
0.059422 0.670132 1.946544 30 30 6
0.082336 0.592827 1.698636 26 26 2
0.061988 0.644995 1.949981 53 52 24
-0.802821 3.706070 11.357939 71 70 14
-0.755629 3.529983 10.864866 67 66 12
-0.751997 3.494402 10.869731 63 61 13
-0.727664 3.399130 10.624183 58 55 10
0.038266 0.761525 2.193274 53 50 7
-0.791414 3.594329 11.373218 48 46 7
-0.543222 2.737149 8.646096 42 42 6
-0.541789 2.723108 8.648016 36 37 5
-0.584966 2.859866 9.146467 33 33 7
0.062166 0.670494 1.947146 31 31 7
-0.624766 2.963542 9.649441 25 23 0
0.085642 0.583630 1.700448 23 22 2
0.064162 0.650944 1.949819 29 28 8
-0.110306 1.215224 3.941265 49 49 21
-0.437240 2.271350 7.675486 68 69 37
-0.433450 2.234226 7.680562 107 103 78
-0.071610 1.174002 3.430985 71 70 14
-0.804853 3.768650 11.612399 68 67 13
-0.936070 4.219827 13.102743 64 62 13
0.040765 0.768361 2.193088 63 61 13
-0.799022 3.711530 11.620210 58 55 10
0.063486 0.684822 1.945838 55 52 9
-0.817158 3.750153 11.873601 49 47 6
-0.045848 1.060668 3.187809 43 43 5
-0.592244 2.937249 9.398028 33 33 5
-0.088061 1.196114 3.686634 31 31 5
-0.654554 3.130528 10.147618 29 29 5
-0.674633 3.188191 10.398406 26 26 0
-0.389292 2.200463 7.170720 25 25 1
-0.442589 2.305453 7.932382 108 104 79
-0.000802 0.936919 2.688328 72 71 14
-0.349612 2.194319 6.656713 70 69 13
0.087159 0.615140 1.697248 65 63 12
-0.519924 2.782917 8.646389 60 57 12
-0.908305 4.158003 13.116220 55 54 8
0.088130 0.605634 1.698548 51 49 8
0.088372 0.603258 1.698873 44 44 6
0.024028 0.828653 2.444362 38 39 5
-0.620189 3.090249 9.898214 35 35 7
-0.702502 3.356698 10.896860 29 29 3
-0.450910 2.376788 8.184381 108 104 79
0.089009 0.620201 1.697110 72 72 12
0.089252 0.617824 1.697435 70 69 12
-0.380745 2.341955 7.156757 66 65 11
-0.571554 3.032963 9.392074 65 63 14
0.089980 0.610695 1.698410 60 58 10
0.090222 0.608319 1.698735 55 54 8
0.090465 0.605943 1.699060 51 49 8
-0.628797 3.200984 10.145701 44 44 6
-0.648227 3.260422 10.396440 38 39 5
-0.667573 3.319026 10.647294 35 35 7
-0.747993 3.583192 11.646641 30 30 4
0.091920 0.591684 1.701010 28 28 2
-0.112897 1.289005 4.194330 33 33 5
-0.659367 3.408149 10.639160 63 61 12
-0.676615 3.450267 10.892365 51 50 6
-0.674799 3.432477 10.894798 47 48 6
-0.693693 3.490719 11.145798 40 40 2
-0.712501 3.548127 11.396912 38 39 5
-0.791029 3.810010 12.396960 32 32 6
0.032636 0.815090 2.447909 27 27 3
-0.355703 2.321868 7.164888 63 61 10
-0.740673 3.760254 11.890374 53 52 6
-0.698001 3.587792 11.395833 49 50 6
-0.757002 3.797427 12.144352 43 44 4
-0.775231 3.853223 12.395784 39 41 4
-0.126264 1.424837 4.437871 34 35 4
-0.811434 3.962316 12.898990 34 34 8
0.077031 0.661135 1.951683 24 24 0
0.057641 0.728303 2.201560 25 25 1
-0.718826 3.546230 11.919638 24 23 2
-0.199202 1.648222 5.443571 26 26 2
-0.495175 2.705903 9.184867 38 38 12
-0.672775 3.641100 11.133730 77 75 16
-0.004231 1.009572 2.941325 71 69 10
-0.626992 3.430033 10.644273 67 66 10
-0.725524 3.801692 11.889247 64 63 9
