ply
format ascii 1.0
element vertex 1233
property float x
property float y
property float z
property uchar red
property uchar green
property uchar blue
end_header
1.216661 0.410095 3.119236 133 124 67
1.119559 0.402825 2.925878 229 226 221
3.509975 1.059157 9.573417 127 119 106
1.025540 0.394171 2.732272 135 127 116
0.599702 0.280144 1.559499 144 137 127
1.296504 0.475995 3.515162 147 143 134
1.279648 0.483565 3.516519 164 159 153
1.205329 0.466063 3.321327 167 162 156
1.200018 0.468448 3.321754 172 167 161
3.577650 1.181401 10.171501 173 168 162
2.816016 0.963788 8.019882 176 171 165
2.668372 0.928338 7.629416 177 173 164
0.121756 0.647430 2.201526 210 207 198
0.118295 0.648985 2.201805 172 170 158
0.132638 0.947817 3.407719 215 213 201
0.121208 0.902072 3.207462 210 208 196
0.197564 1.580086 6.017807 206 204 192
0.111396 0.957357 3.409430 198 196 183
0.106086 0.959742 3.409858 196 194 179
0.105354 1.010950 3.611095 195 193 178
0.057036 0.523859 1.603204 195 194 176
0.062423 0.623198 2.005127 192 191 171
0.081191 0.920043 3.210685 190 189 168
0.069499 0.823536 2.809270 189 184 162
0.071187 0.924536 3.211490 183 178 156
0.068913 0.976436 3.412852 177 175 152
0.066023 1.028613 3.614263 174 169 147
0.041397 0.581762 1.805642 165 159 133
0.040357 0.633108 2.006904 159 151 112
0.035709 0.584317 1.806100 141 134 79
0.031678 0.535248 1.605247 134 126 61
0.021166 0.947001 3.215519 130 125 33
0.016164 0.949247 3.215922 131 126 34
-0.023875 1.068987 3.621503 132 126 32
-0.133533 2.491969 9.062146 136 130 36
-0.098785 1.814936 6.444031 132 126 32
-0.022691 0.661423 2.011982 136 130 36
-0.073129 0.684076 2.016044 134 128 32
-0.172309 1.237408 4.035814 137 131 35
-0.610554 3.214993 11.112347 136 130 34
-0.294604 1.597606 5.252732 136 130 34
-0.158547 0.925954 2.827636 137 131 35
-0.466364 1.980019 6.473635 136 130 34
-0.334424 1.310215 4.048870 135 129 33
4.064496 1.096015 10.741402 166 158 122
3.464328 0.961329 9.179505 220 213 197
1.045708 0.380122 2.732084 229 224 220
1.041322 0.382092 2.732437 211 208 201
0.965585 0.365577 2.537258 176 173 164
1.305486 0.465566 3.516279 133 125 114
3.263181 1.001138 8.994426 141 134 124
1.084819 0.413085 2.930213 146 142 133
0.802118 0.337935 2.147865 153 149 140
1.283012 0.475659 3.518089 154 150 141
1.070738 0.419409 2.931347 163 158 152
1.203198 0.460976 3.323238 168 163 157
1.607499 0.582570 4.498351 172 167 161
1.396458 0.525766 3.911510 173 168 162
2.607960 0.891178 7.436963 174 169 163
0.643206 0.308248 1.758105 176 172 163
0.286661 1.226297 4.806008 216 213 204
0.189230 0.865829 3.203622 216 213 204
0.290434 1.729884 6.818496 193 191 178
0.135817 0.940345 3.409202 215 213 201
0.105290 0.751943 2.606544 211 209 197
0.275094 2.140998 8.429965 207 205 193
0.114199 0.899526 3.209664 205 203 191
0.071541 0.564987 1.804146 201 199 186
0.073768 0.614515 2.005246 197 195 182
0.099192 0.906266 3.210873 195 193 178
0.094190 0.908512 3.211276 194 193 175
0.053483 0.522569 1.604321 192 191 170
0.086243 1.013137 3.614474 190 189 168
0.051632 0.573928 1.805749 189 184 162
0.080832 1.116624 4.017468 184 179 159
0.061573 0.872633 3.012624 178 173 153
0.059176 0.924237 3.214096 176 171 149
0.052185 0.876849 3.013380 165 160 131
0.050852 0.978504 3.416045 161 156 118
0.037311 0.681416 2.209461 144 137 85
0.032787 0.632920 2.008546 136 128 66
0.027376 0.736406 2.411540 131 125 41
0.014577 2.308527 8.652226 130 125 33
0.007465 1.654855 6.036169 132 127 35
-0.071435 2.498740 9.262990 134 129 37
-0.073577 1.994420 7.250371 134 128 34
-0.236723 2.522444 9.075023 135 129 35
-0.074547 0.933765 3.023586 135 129 35
-0.165084 1.176539 3.835995 136 130 34
-0.524777 2.752867 9.500781 137 131 35
-0.667891 2.968725 10.116145 135 129 33
-0.234019 1.156970 3.640268 137 131 35
-0.537895 2.152421 7.086487 134 128 32
-0.564955 2.215102 7.289946 139 133 37
-0.319184 1.245746 3.848406 135 129 33
3.927918 1.037621 10.355218 130 122 60
3.326890 0.906129 8.792582 157 149 112
2.658026 0.754926 7.034030 214 207 191
3.226545 0.901017 8.599284 241 232 227
1.120486 0.391724 2.928878 237 229 226
0.963949 0.361672 2.538725 180 177 168
2.709290 0.832257 7.432662 131 123 112
1.437603 0.500191 3.910239 139 132 122
3.783986 1.152439 10.568190 151 147 138
3.767269 1.159947 10.569536 155 151 142
3.681791 1.148158 10.375040 164 159 153
1.201067 0.455889 3.325148 167 162 156
1.127612 0.438701 3.129684 170 165 159
2.207996 0.756329 6.264754 172 167 161
2.198062 0.760790 6.265554 173 168 162
0.164813 0.720570 2.603086 215 212 203
0.433642 1.904445 7.817319 216 213 204
0.452114 2.046681 8.419971 215 212 203
0.132200 0.885748 3.209853 211 209 197
0.116015 0.842840 3.009776 205 203 191
0.128938 0.987568 3.612876 203 201 189
0.112191 0.894734 3.211464 202 200 188
0.107189 0.896981 3.211867 200 198 186
0.102187 0.899227 3.212270 198 196 183
0.066198 0.614327 2.006888 195 194 176
0.055001 0.519001 1.605029 195 194 174
0.056179 0.568649 1.806314 193 192 172
0.056741 0.618574 2.007649 190 189 168
0.053589 0.619990 2.007903 189 184 162
0.075541 1.061726 3.818557 183 178 158
0.086982 1.407829 5.227296 179 172 154
0.083243 1.509863 5.630358 175 170 148
0.039115 0.576313 1.807689 167 163 134
0.036271 0.577590 1.807918 160 156 119
0.040915 0.876568 3.015825 146 140 92
0.037160 0.928431 3.217507 137 128 69
0.027107 0.531528 1.607276 132 124 49
-0.182450 1.880074 6.658657 134 128 34
-0.140756 1.108690 3.634597 136 130 34
-0.128748 0.852410 2.626729 136 130 34
-0.448720 2.350898 8.089763 137 131 35
-0.317024 1.689625 5.662594 138 132 36
-0.264143 1.414990 4.651435 138 132 36
-0.285623 1.424637 4.653165 138 132 36
-0.292783 1.427853 4.653741 139 133 37
-0.369232 1.713073 5.666799 135 129 33
-0.533760 2.338913 7.895232 140 134 38
-0.531393 2.137141 7.089520 138 132 36
-0.766473 2.945199 9.927775 134 128 32
-0.651056 2.491946 8.307439 140 134 38
-0.625274 2.229481 7.298462 134 128 32
-1.798944 3.709953 11.219210 140 134 38
-0.590247 1.310559 3.670798 140 134 40
-0.995751 2.044624 5.918638 138 129 36
-0.793115 1.602378 4.492657 139 130 37
3.994596 1.038826 10.556703 123 115 53
3.467203 0.926897 9.188810 152 144 105
3.162063 0.864633 8.407461 207 200 182
2.859389 0.801261 7.625914 236 227 222
0.891209 0.339873 2.344437 185 185 173
2.985278 0.894202 8.220218 130 124 112
2.483165 0.770920 6.850290 139 132 122
2.333180 0.738627 6.459407 145 141 130
3.708024 1.117701 10.378302 149 145 134
1.209557 0.446032 3.326204 154 150 141
1.135609 0.429417 3.130678 163 158 152
0.993948 0.393385 2.739125 165 160 154
1.329668 0.491742 3.719493 168 163 157
1.323741 0.494404 3.719970 170 165 159
2.868122 0.946817 8.229654 171 166 160
0.336182 1.535841 6.217280 214 211 202
0.170457 0.813047 3.006929 215 212 203
0.269690 1.316571 5.215229 215 212 203
0.434505 2.438385 10.037502 212 209 200
0.154777 0.969569 3.612635 210 208 195
0.281809 1.859219 7.430545 210 208 195
0.350346 2.675487 10.850204 204 202 190
0.105182 0.892189 3.213667 199 197 185
0.090533 0.799115 2.811885 198 196 183
0.095178 0.896682 3.214473 197 195 180
0.090176 0.898928 3.214876 196 195 177
0.073478 0.756949 2.611777 195 194 174
0.083763 0.951635 3.416873 192 191 171
0.085017 1.050725 3.819735 190 189 169
0.079090 1.053387 3.820212 186 184 163
0.078494 1.153307 4.223222 182 177 158
0.060164 0.912407 3.217293 180 173 157
0.055162 0.914654 3.217696 174 169 147
0.037974 0.573588 1.808712 169 165 136
0.037995 0.673232 2.211673 160 156 121
0.033410 0.625464 2.010561 149 142 98
0.029441 0.577420 1.809399 138 127 71
0.029644 0.876288 3.018270 133 125 52
0.020365 0.830628 2.817536 130 124 38
-0.024645 0.751190 2.418199 134 128 34
-0.163889 1.610948 5.653111 135 129 35
-0.128652 1.047032 3.433981 134 128 32
-0.124913 0.995527 3.232199 136 130 34
-0.535641 3.073391 10.921560 135 129 33
-0.141899 0.903502 2.830604 136 130 34
-0.134461 0.850336 2.628524 137 131 35
-0.271988 1.460190 4.855893 138 132 36
-0.242136 1.297304 4.249045 138 132 36
-0.281983 1.365026 4.453735 139 133 37
-0.638641 2.721037 9.318007 138 132 36
-0.540414 2.178659 7.295285 135 129 33
-0.456595 1.842057 6.079647 138 132 36
-0.458783 1.793213 5.878342 140 134 38
-0.467898 1.099737 3.058341 143 137 41
-0.283410 0.717924 1.834596 141 135 39
-1.290399 2.565309 7.557168 138 129 36
-1.482247 2.850775 8.378544 138 129 36
-0.633135 1.273599 3.474611 139 130 37
1.135494 0.374299 2.930744 125 116 57
3.170042 0.845883 8.411183 154 147 105
0.981063 0.344704 2.540017 205 198 179
3.071177 0.840808 8.217564 236 227 222
0.757193 0.296820 1.953301 237 228 223
1.684801 0.523406 4.499160 233 226 220
1.031658 0.371458 2.737525 190 190 178
0.885928 0.337955 2.346097 147 144 129
2.559722 0.773653 7.049263 129 123 111
2.618302 0.796820 7.246127 138 131 123
3.092898 0.930004 8.618978 143 139 128
3.286656 0.991412 9.208120 148 144 133
3.409742 1.035084 9.601371 152 148 139
0.996573 0.387214 2.740350 159 156 147
1.333217 0.483402 3.721148 161 158 151
1.055700 0.410135 2.937170 166 161 155
0.567738 0.282954 1.565395 169 166 157
0.625562 0.306461 1.762320 171 169 157
0.622718 0.307738 1.762549 172 170 158
1.448762 0.579937 4.316588 174 172 160
1.122461 0.479104 3.334958 178 176 164
0.732200 0.357520 2.156896 181 179 167
0.539844 0.295482 1.567642 182 180 168
1.095909 0.491028 3.337096 182 180 167
1.152639 0.515026 3.534109 184 182 170
1.632790 0.695190 5.108095 184 182 169
0.154556 0.765371 2.808165 214 211 202
0.404019 2.286027 9.440282 211 208 199
0.186302 1.493246 5.829339 199 199 187
-0.026157 0.747579 2.419555 135 129 35
-0.192880 2.405672 8.883609 136 130 36
-0.082989 1.020481 3.432043 135 129 35
-0.133848 1.340175 4.645631 135 129 35
-0.136093 1.044330 3.436319 136 130 34
-0.084517 0.724314 2.222673 135 129 33
-0.201853 1.172814 3.844780 136 130 34
-0.590091 2.930391 10.326674 137 131 35
-0.458346 2.228042 7.695497 138 132 36
-0.083968 0.575641 1.617883 139 133 37
-0.507187 2.299452 7.901013 138 132 36
-0.533076 2.360555 8.104680 139 133 37
-0.672424 2.868417 9.930141 135 129 33
-0.384917 1.700309 5.673762 138 132 36
-0.657830 2.663960 9.122638 137 131 35
-0.583493 2.234771 7.503994 135 129 33
-0.528684 2.012254 6.693251 139 133 37
-0.243725 0.647389 1.630749 143 137 41
-0.463801 1.043080 2.857966 142 133 40
-0.879918 1.724716 4.907300 139 130 37
-0.289370 0.667888 1.634425 139 130 37
-0.635266 1.268512 3.476522 139 130 37
-1.409763 2.605855 7.570540 141 132 39
3.324050 0.859799 8.806510 117 115 58
3.091988 0.816645 8.220151 142 139 96
2.934175 0.789271 7.829495 197 191 167
1.181615 0.397368 3.130250 234 229 223
0.888185 0.332652 2.347150 199 196 187
0.884416 0.334344 2.347453 151 149 136
1.296469 0.444036 3.524366 128 122 110
2.404826 0.732258 6.662029 134 125 116
2.186330 0.683013 6.074578 144 135 128
1.486634 0.506005 4.114099 149 142 134
3.472352 1.038818 9.802982 151 144 138
1.199985 0.438243 3.330453 159 152 146
1.194675 0.440628 3.330881 159 154 150
1.392686 0.499073 3.919983 160 155 151
3.448748 1.147668 10.208249 169 165 153
0.624421 0.303736 1.763344 170 166 155
2.376558 0.843203 7.067672 171 167 156
0.551506 0.287358 1.567533 169 165 154
2.278981 0.837901 6.873848 174 170 159
2.459420 0.904238 7.464365 179 175 164
1.495767 0.600153 4.516730 181 177 166
1.299158 0.541077 3.927515 181 177 166
0.658204 0.337688 1.962306 184 182 169
1.088468 0.488326 3.339435 186 184 171
1.083157 0.490711 3.339862 187 185 172
1.077847 0.493096 3.340290 188 186 173
0.089729 0.543870 1.806407 207 205 193
0.305203 1.969963 8.041228 207 205 193
0.306271 2.067733 8.444508 206 204 192
0.119753 0.825134 3.014087 205 203 190
0.140245 1.258053 4.827584 199 197 184
0.141929 1.355546 5.230815 199 195 183
-0.003840 0.536768 1.612260 134 128 34
-0.060114 1.151537 4.036989 135 129 35
-0.063240 1.054692 3.633874 135 129 35
-0.244122 1.381550 4.656857 133 127 31
-0.145418 0.895100 2.833761 136 130 34
-0.089449 0.624341 1.820838 137 131 35
-0.277981 1.445881 4.861267 137 131 35
-0.247387 1.284767 4.253754 139 133 37
-0.539859 2.447736 8.512654 140 134 38
-0.593140 2.520790 8.718628 136 130 34
-0.402945 1.747627 5.879747 141 135 39
-0.784654 3.098046 10.750883 139 133 37
-0.538938 2.054325 6.899115 134 128 32
-0.277160 0.708643 1.835956 143 137 41
-0.247279 0.646098 1.631866 142 136 40
-0.302757 0.720139 1.838017 141 132 39
-0.487488 1.048726 2.861310 140 131 38
-0.311289 0.723971 1.838704 140 131 38
-0.314134 0.725248 1.838933 140 131 38
-0.280244 0.660904 1.634521 138 129 36
-1.704613 3.167335 9.413193 138 129 36
-1.249793 2.324451 6.754683 137 131 37
2.423279 0.663188 6.462215 193 187 163
3.996289 1.029760 10.774776 231 222 213
2.187819 0.622614 5.875826 238 231 225
1.023753 0.365025 2.741034 154 152 140
2.550760 0.752257 7.057300 123 117 105
2.470093 0.739711 6.862013 127 118 109
2.528425 0.762288 7.059099 138 129 122
1.477465 0.502676 4.116981 139 132 126
1.129588 0.415041 3.136078 137 132 126
1.192544 0.435541 3.332792 139 134 130
1.187234 0.437926 3.333220 144 139 135
1.181923 0.440311 3.333647 149 144 140
0.573311 0.274679 1.566608 154 149 145
0.570775 0.275818 1.566812 157 152 148
1.689552 0.602521 4.907036 161 157 148
0.626124 0.299734 1.764138 169 165 153
1.079567 0.437506 3.140107 170 166 155
2.955958 1.009243 8.840722 171 167 156
2.221224 0.802707 6.680272 173 169 158
0.739805 0.346227 2.158551 180 176 165
1.049554 0.450985 3.142524 180 176 165
1.800864 0.698851 5.503423 184 180 169
1.908279 0.748157 5.898340 179 177 164
1.091647 0.480854 3.340918 185 183 170
1.086337 0.483239 3.341346 186 184 171
1.326965 0.570266 4.129102 193 191 178
1.014540 0.466710 3.145344 195 193 180
0.467566 2.029252 8.637565 215 212 203
0.109165 0.873321 3.218261 202 200 187
0.104163 0.875567 3.218664 201 199 186
0.103922 0.924449 3.420468 199 197 184
0.103064 0.973608 3.622321 199 196 181
-0.004857 0.534339 1.613172 133 128 34
-0.058437 1.094913 3.837112 136 130 36
-0.076732 1.054356 3.636801 132 126 32
-0.192589 1.545352 5.462188 136 130 34
-0.490134 2.508136 8.916480 134 128 32
-0.456018 2.200172 7.703029 137 131 35
-0.086003 0.570782 1.619708 139 133 37
-0.773082 3.122947 10.957109 140 134 38
-1.365176 2.803577 8.583387 142 136 40
-1.324279 2.687662 8.176525 143 137 41
-0.531100 1.160869 3.269827 145 136 43
-0.541104 1.165362 3.270633 143 134 41
-0.632977 1.304170 3.681600 141 132 39
-0.315275 0.722524 1.839957 141 132 39
-1.225439 2.253082 6.554292 137 131 37
2.803490 0.722889 7.444373 115 113 52
2.646788 0.696419 7.053224 133 130 85
2.419169 0.653376 6.465901 186 180 156
2.265241 0.625660 6.074528 230 221 212
0.896467 0.320353 2.348952 237 230 224
1.456269 0.456324 3.918946 229 226 221
1.343863 0.458384 3.726114 116 112 103
1.127580 0.410249 3.137878 111 107 98
1.190413 0.430454 3.334703 114 110 101
1.185103 0.432838 3.335130 114 109 103
1.919192 0.635805 5.496743 122 117 111
0.572293 0.272250 1.567520 134 129 123
1.968391 0.662132 5.694666 141 137 128
1.495328 0.535628 4.319570 151 147 138
0.564686 0.275667 1.568133 159 155 146
2.335422 0.787833 6.876415 162 158 147
2.912879 0.964298 8.646873 164 160 148
0.557078 0.279083 1.568745 168 164 153
2.238092 0.783122 6.682369 171 167 156
2.098654 0.748899 6.289829 174 170 159
2.152855 0.772980 6.487349 178 174 163
0.607918 0.304674 1.766536 181 177 166
0.731495 0.346020 2.160353 179 175 164
0.665132 0.327401 1.963813 182 178 167
0.658827 0.330233 1.964321 181 179 166
1.585336 0.640474 4.917976 186 184 171
1.022537 0.457425 3.146338 189 187 174
1.017535 0.459672 3.146741 197 195 182
1.012533 0.461918 3.147144 202 200 187
0.299240 1.314915 5.425326 215 212 203
0.280968 1.274698 5.224913 214 211 202
0.487071 2.344285 10.053553 213 210 201
0.471588 2.351239 10.054800 212 209 200
0.112526 0.672427 2.412089 208 206 194
0.148427 1.479492 5.841242 199 196 181
0.095191 0.970749 3.624795 197 194 179
-0.012097 0.583127 1.816471 135 129 35
-0.072669 1.094559 3.840199 135 129 35
-0.083824 1.147992 4.042982 135 129 35
-0.043912 0.548993 1.617148 136 130 34
-0.519008 2.602431 9.327041 135 129 33
-0.196978 1.101964 3.648326 136 130 34
-0.584464 2.777097 9.937968 137 131 35
-0.306379 1.441635 4.868447 141 135 39
-0.328628 1.403204 4.668354 139 133 37
-0.194009 0.858517 2.638662 141 135 39
-0.995807 1.993377 5.933397 143 134 41
-0.343631 0.780445 2.045057 143 134 41
-1.893333 3.510189 10.649037 141 132 39
-1.640855 3.009416 9.013623 138 132 38
-0.365698 0.790355 2.046834 139 133 39
-2.044865 3.626666 10.863126 137 131 37
2.653475 0.680705 7.056343 110 109 45
3.872006 0.950677 10.391966 132 130 82
3.639517 0.910874 9.804732 181 177 150
2.117941 0.584714 5.685572 228 221 211
1.966111 0.556758 5.293828 239 231 228
0.669347 0.273848 1.762520 171 169 157
1.335558 0.455368 3.728724 81 77 66
1.781512 0.591590 5.106710 82 78 67
1.906999 0.631377 5.500575 99 95 84
0.629529 0.291731 1.765727 147 143 132
0.561132 0.274376 1.569250 156 152 140
1.465172 0.541373 4.324243 167 163 152
0.618153 0.296840 1.766643 170 166 155
2.480587 0.854494 7.474239 175 171 160
0.740488 0.338042 2.160762 176 172 161
0.609621 0.300672 1.767330 177 173 162
0.667019 0.322966 1.964693 177 173 162
1.542766 0.602669 4.721966 179 175 164
1.535298 0.606023 4.722567 180 176 165
1.714316 0.669841 5.314107 180 178 165
1.087386 0.470680 3.344740 188 186 173
0.958984 0.432202 2.951109 192 190 177
1.444188 0.598869 4.527919 199 197 184
1.437028 0.602085 4.528496 203 201 188
0.259052 2.236779 9.269045 202 200 187
0.196584 1.784114 7.254216 201 199 186
0.140281 1.328680 5.238891 199 197 184
-0.036444 1.119616 4.041209 132 127 35
-0.028437 0.731445 2.424676 135 129 35
-0.080974 1.091543 3.842809 136 130 36
-0.144991 1.264510 4.453923 136 130 34
-0.136207 1.164421 4.049244 135 129 33
-0.242339 1.692806 6.077651 134 128 32
-0.524726 2.588780 9.332169 136 130 34
-0.664929 2.844034 10.151405 140 134 38
-0.346718 1.451251 4.874142 139 133 37
-0.385236 1.564694 5.281216 143 137 41
-0.713307 1.471673 4.297708 145 136 43
-0.620630 1.285835 3.684286 143 134 41
-1.361078 2.579816 7.783640 141 132 39
-1.384646 2.590401 7.785538 141 132 39
-1.203608 2.220663 6.559042 139 133 39
3.954351 0.942741 10.592795 115 114 50
3.793211 0.919668 10.201599 127 125 76
2.051432 0.556607 5.491792 171 167 138
1.756351 0.498246 4.707210 221 215 203
2.675610 0.705775 7.260305 238 231 225
0.863291 0.326673 2.354092 75 73 61
0.562651 0.270808 1.569958 116 112 101
0.625544 0.290283 1.766979 135 131 120
2.185606 0.734955 6.491421 147 143 132
0.619856 0.292838 1.767437 161 157 146
0.681516 0.312867 1.964558 168 164 153
1.825195 0.658212 5.510013 176 172 161
0.725257 0.340944 2.163123 174 170 159
1.462795 0.582363 4.528766 181 179 166
1.085255 0.465593 3.346650 191 189 176
1.018523 0.447841 3.149938 196 194 181
0.433045 2.190139 9.461786 213 210 201
0.088750 0.817688 3.022733 198 196 183
0.088138 0.865685 3.224870 197 194 179
0.083136 0.867931 3.225272 195 192 177
-0.138064 2.494350 9.709869 134 129 35
-0.102174 1.810135 6.877762 132 127 33
-0.012981 0.529329 1.616318 134 128 34
-0.155373 1.309095 4.659090 136 130 34
-0.075177 0.748146 2.429675 133 127 31
-0.862757 1.722229 5.120235 144 135 42
-1.210042 2.307688 6.966987 144 135 42
-1.847897 3.357691 10.251750 142 133 40
-1.713235 3.106329 9.432557 140 131 38
-0.402920 0.847617 2.253984 140 134 40
-1.093135 2.016578 5.947137 138 132 38
2.354928 0.599882 6.278951 112 111 47
3.268194 0.805541 8.833841 168 165 132
3.325723 0.827075 9.031395 211 208 191
1.086644 0.364184 2.943902 180 178 166
1.279578 0.419647 3.534927 102 100 88
1.307094 0.454659 3.734899 161 157 146
1.301167 0.457321 3.735376 145 141 130
1.361471 0.477609 3.932707 124 120 109
1.355236 0.480409 3.933210 106 102 91
0.621559 0.288836 1.768232 98 94 85
0.942160 0.381703 2.753351 128 124 115
0.680251 0.309847 1.965693 152 148 139
1.958550 0.683158 5.906499 170 166 157
2.012996 0.706076 6.104302 177 173 162
1.467082 0.572289 4.530765 175 171 160
0.655032 0.321173 1.967724 184 182 169
1.021518 0.440803 3.151335 195 193 180
1.016516 0.443050 3.151738 200 198 185
1.316462 0.545193 4.138520 204 202 189
-1.649829 3.203744 10.038681 142 136 40
-1.394869 2.615537 7.996268 144 135 42
-0.423432 0.900261 2.458957 142 133 40
-0.280260 0.646480 1.638675 143 134 41
-1.249857 2.266189 6.771462 138 132 38
3.290484 0.779662 8.836612 111 110 46
3.132613 0.756524 8.444749 115 113 62
3.835846 0.910890 10.411000 139 137 99
0.593581 0.251145 1.569128 108 106 93
1.698079 0.507416 4.716795 114 112 100
0.651703 0.272061 1.766736 166 164 152
3.638945 0.999320 10.426858 168 165 156
1.358969 0.471636 3.934951 192 189 180
0.547936 0.271644 1.572804 133 130 121
1.818212 0.641541 5.516275 163 159 148
1.034517 0.429272 3.151926 173 169 158
1.029515 0.431518 3.152329 179 175 164
1.024513 0.433765 3.152732 184 182 169
1.019511 0.436011 3.153135 194 192 179
-0.565215 1.194744 3.483055 141 135 39
-1.435964 2.667249 8.205827 144 135 42
-0.424945 0.896650 2.460314 142 133 40
-0.855643 1.607293 4.720179 142 133 40
-1.522770 2.706234 8.212819 138 132 38
4.006377 0.908965 10.807420 107 105 44
1.556951 0.468961 4.325828 131 129 117
2.787737 0.756238 7.869720 144 141 132
2.775336 0.761807 7.870718 148 146 134
1.945242 0.574587 5.508895 155 152 143
2.004374 0.594699 5.706522 159 156 147
2.130413 0.631431 6.101151 165 162 153
2.389652 0.701679 6.889831 168 165 158
2.378792 0.706556 6.890706 171 168 161
1.035939 0.376272 2.951060 173 170 163
0.894585 0.346418 2.557665 190 187 180
0.798451 0.342924 2.363018 108 104 93
0.794682 0.344617 2.363321 134 130 119
0.790913 0.346309 2.363625 160 156 145
1.281645 0.499266 3.943221 183 179 168
1.027508 0.426727 3.154129 188 184 173
1.022506 0.428973 3.154532 194 192 179
-1.017382 2.045130 6.354669 142 136 40
-0.993416 1.987698 6.150349 139 133 37
-0.567346 1.189656 3.484966 140 134 38
-0.503624 1.067701 3.075054 142 133 38
-1.513406 2.641246 8.013736 139 133 39
3.495370 0.794861 9.436716 106 101 43
3.806270 0.886822 10.424131 103 101 76
1.015820 0.333647 2.751727 183 179 170
1.011435 0.335617 2.752080 169 165 153
3.194565 0.837320 9.055961 127 125 113
3.795245 0.984408 10.830000 142 140 128
3.234081 0.865891 9.255269 150 147 138
2.000758 0.586068 5.709764 152 149 140
2.261352 0.654304 6.498740 160 157 148
2.519479 0.723648 7.287914 162 159 150
1.439455 0.467613 4.135044 163 160 151
0.834628 0.322387 2.361339 164 161 152
2.683555 0.788913 7.882172 169 166 157
2.407716 0.727524 7.094424 175 172 163
1.413281 0.479368 4.137152 180 177 168
1.471981 0.499323 4.334915 188 185 178
2.724768 0.863039 8.283834 185 182 175
3.522845 1.106746 10.851939 112 108 97
0.663847 0.306450 1.970111 103 99 88
1.410315 0.527018 4.339882 133 129 120
0.657542 0.309282 1.970619 177 173 164
1.328216 0.517571 4.144003 201 199 187
1.121111 0.471631 3.553211 198 196 184
-1.401739 2.716285 8.616176 139 133 37
-0.569477 1.184569 3.486877 140 134 38
-0.574787 1.186954 3.487304 141 135 39
-1.871638 3.205226 9.868965 141 132 39
3.920813 0.862671 10.622871 107 102 44
2.593086 0.631562 7.083152 136 134 109
1.663231 0.451599 4.524348 190 189 169
0.940240 0.316633 2.556659 207 201 189
0.936163 0.318464 2.556987 158 155 140
3.051826 0.793272 8.666940 129 127 115
2.697182 0.722712 7.682544 139 137 125
1.938259 0.557916 5.515157 146 144 132
1.659216 0.499369 4.727263 150 147 138
1.719025 0.518475 4.925038 156 153 144
1.778217 0.537858 5.122863 159 156 147
1.970114 0.589576 5.715183 162 159 150
1.828400 0.561288 5.321413 164 161 152
1.753963 0.548751 5.124816 167 164 155
1.351463 0.453716 3.941682 172 169 160
1.345228 0.456517 3.942184 174 171 162
0.687801 0.292104 1.969215 178 175 168
0.684649 0.293520 1.969468 179 176 169
0.552491 0.260940 1.574929 189 186 179
0.549956 0.262079 1.575133 201 198 191
0.858696 0.353255 2.563226 188 184 175
1.095842 0.430617 3.354494 143 139 130
1.028496 0.414897 3.157326 198 194 185
0.707932 0.329030 2.170185 198 196 184
1.130094 0.461202 3.554327 195 193 180
1.124475 0.463725 3.554780 197 195 183
1.118857 0.466248 3.555232 197 195 183
-1.373123 2.642651 8.415543 139 133 37
-1.317538 2.525753 8.005882 137 131 35
-0.549635 1.077680 3.081834 142 133 40
-0.559022 1.081896 3.082590 141 132 39
2.550330 0.592437 6.887561 104 99 43
2.325063 0.556759 6.297625 108 104 57
2.172806 0.533907 5.904502 113 109 74
3.155427 0.731226 8.663062 163 161 136
3.635605 0.834886 10.043238 229 226 209
0.661359 0.254776 1.769684 212 206 194
0.934527 0.314558 2.558454 169 165 153
0.586975 0.242567 1.572982 127 125 112
1.883784 0.526861 5.319701 128 126 114
3.236956 0.831459 9.264574 141 139 127
2.476928 0.671019 7.096165 145 143 131
2.263375 0.630079 6.505286 150 147 138
1.850212 0.541939 5.322405 154 151 142
2.109199 0.608089 6.112318 157 154 145
1.700351 0.518011 4.929089 160 157 148
0.831603 0.315166 2.364051 162 159 150
2.080320 0.621059 6.114644 166 163 154
2.070694 0.625382 6.115419 168 165 156
1.538638 0.499406 4.536728 171 168 159
0.686537 0.289085 1.970349 175 172 165
0.683384 0.290500 1.970603 175 172 165
1.509997 0.512268 4.539034 186 183 176
0.801452 0.328707 2.366479 194 191 184
0.734229 0.313282 2.169201 203 200 193
1.031491 0.407858 3.158723 191 186 180
0.651860 0.304658 1.973142 198 194 185
1.077781 0.432685 3.357688 194 192 180
1.061850 0.439840 3.358971 194 192 180
1.056539 0.442225 3.359399 196 194 182
-1.331254 2.381302 7.402870 142 133 40
-1.414511 2.464310 7.612268 143 134 41
3.835744 0.817558 10.437879 103 98 43
3.391261 0.745589 9.256915 103 99 54
3.163590 0.712042 8.666870 122 117 85
2.796311 0.650666 7.682481 184 182 159
3.840531 0.860673 10.640287 236 230 216
0.668750 0.248220 1.770020 232 226 214
1.154535 0.346905 3.150452 224 215 206
0.932891 0.310652 2.559922 172 168 156
2.699571 0.694112 7.690273 131 129 117
2.007932 0.552082 5.718039 147 145 133
2.472447 0.660320 7.100184 149 147 135
1.922575 0.545152 5.522120 150 148 136
2.718230 0.730997 7.891564 152 149 140
2.105336 0.598868 6.115782 155 152 143
2.029297 0.587752 5.919112 160 157 148
2.218294 0.638668 6.512272 164 161 152
1.221102 0.407539 3.550678 166 163 154
0.688424 0.284649 1.971229 170 167 158
1.723220 0.544154 5.132588 172 169 162
1.327754 0.450171 3.947676 174 171 164
0.672662 0.291728 1.972499 179 176 169
1.366144 0.478195 4.147378 187 184 177
0.729379 0.311521 2.170725 190 185 179
0.537777 0.261776 1.577775 192 187 181
0.514955 0.272025 1.579613 195 193 181
-0.378034 0.808868 2.259914 142 133 40
-1.138824 2.010580 6.174267 140 131 38
-1.419116 2.453316 7.616397 142 133 40
3.543039 0.750682 9.655249 100 95 40
3.100532 0.679931 8.473519 105 101 56
3.158120 0.698982 8.671776 113 108 76
3.850540 0.837152 10.644956 178 176 151
2.498178 0.591140 6.898874 231 225 211
0.661920 0.248050 1.771502 224 216 205
1.604492 0.453531 4.536114 131 129 116
2.682626 0.687959 7.695598 140 138 125
2.535488 0.664211 7.301659 144 142 130
2.053512 0.566272 5.920214 145 143 131
1.174416 0.377197 3.353384 150 147 138
1.368899 0.424596 3.946404 154 151 142
1.296374 0.412253 3.749351 161 158 149
2.016240 0.583011 5.923215 164 161 152
1.540052 0.482472 4.541304 166 163 154
0.622103 0.265932 1.774709 168 165 156
1.396236 0.457233 4.147097 169 166 159
1.196373 0.412250 3.554510 175 172 165
0.544367 0.255930 1.578075 177 174 167
0.731451 0.306651 2.171691 181 178 171
0.853788 0.341537 2.567628 185 180 176
0.912300 0.360173 2.765810 188 183 179
0.845633 0.345200 2.568285 192 187 183
0.841556 0.347031 2.568613 192 187 181
1.022474 0.400521 3.162726 192 187 181
0.894758 0.368051 2.767223 193 189 180
-0.588621 1.168991 3.495376 142 136 40
-1.142563 2.001654 6.177620 139 130 37
-1.307218 2.255258 7.002460 141 132 39
3.536950 0.736145 9.660709 98 93 38
3.166283 0.679798 8.675584 100 96 51
2.586329 0.583753 7.098327 111 106 74
2.575162 0.588769 7.099227 175 173 148
3.827116 0.828645 10.652318 232 229 214
0.736332 0.255957 1.969436 236 232 220
0.730028 0.258789 1.969944 224 218 204
1.002636 0.314611 2.759971 211 205 193
2.621851 0.656927 7.501458 132 130 117
1.797581 0.492354 5.131895 139 137 124
1.789496 0.495985 5.132546 144 142 129
1.982683 0.542913 5.725974 145 143 131
2.240802 0.605243 6.517168 151 149 137
1.166975 0.374495 3.355722 156 153 144
0.764670 0.287794 2.170149 160 157 148
0.761209 0.289348 2.170428 162 159 150
1.724817 0.525033 5.137755 168 165 156
1.393610 0.450964 4.149452 172 169 162
1.387066 0.453903 4.149979 175 172 165
1.188500 0.409391 3.556984 178 175 168
1.360893 0.465658 4.152087 180 177 170
0.914926 0.354002 2.767035 182 179 172
0.910541 0.355972 2.767388 184 181 174
0.906155 0.357941 2.767741 187 182 176
1.020467 0.395729 3.164526 190 185 179
0.831765 0.346787 2.570737 191 187 178
0.940151 0.387237 2.967999 194 191 182
0.751687 0.338187 2.374191 195 192 183
-0.514924 1.040722 3.085188 140 134 38
-1.253405 2.129955 6.595590 140 131 38
-1.622285 2.696691 8.452260 141 132 39
3.174446 0.660614 8.679392 99 94 39
3.657635 0.753097 10.062153 98 94 49
3.500510 0.735238 9.668614 111 107 72
3.063187 0.666369 8.485256 167 166 138
2.349364 0.544829 6.511780 225 223 208
1.138510 0.337022 3.156657 212 206 194
1.598746 0.439813 4.541267 130 128 115
1.388836 0.401449 3.948883 137 135 122
2.257178 0.586230 6.519204 142 140 127
1.979068 0.534282 5.729216 145 143 131
1.836741 0.509778 5.334486 151 149 137
0.766742 0.282924 2.171116 155 152 143
1.225576 0.386345 3.555839 159 156 147
1.219957 0.388869 3.556291 162 159 150
1.148913 0.376563 3.358916 164 161 152
0.687782 0.274174 1.974379 166 163 154
0.684629 0.275589 1.974632 167 164 155
1.390984 0.444696 4.151807 171 168 161
1.512826 0.478401 4.548187 174 171 164
1.238275 0.424854 3.757912 177 174 167
1.169389 0.411579 3.560364 179 176 169
0.850516 0.333726 2.570562 181 178 171
0.908781 0.351771 2.768966 182 179 172
0.842361 0.337388 2.571219 186 183 176
1.018460 0.390937 3.166326 188 185 178
0.891239 0.359649 2.770379 190 187 180
0.947655 0.378524 2.968932 193 190 181
1.299376 0.485838 4.159185 192 189 180
0.753944 0.332884 2.375243 193 190 181
0.809743 0.352037 2.573846 196 193 184
-0.712425 1.345141 4.118115 142 136 40
-0.330110 0.687104 1.853261 140 131 38
-0.335798 0.689659 1.853719 141 132 39
-0.380877 0.754116 2.060446 139 130 37
-0.701615 1.251861 3.711051 140 131 38
-1.907430 3.119773 9.901064 140 131 38
1.342687 0.415077 3.954642 163 160 151
1.271459 0.403205 3.757181 165 162 153
1.071476 0.361435 3.163694 166 163 154
1.002097 0.348732 2.966085 170 167 160
1.381815 0.441366 4.154688 173 170 163
0.737668 0.292043 2.174591 175 172 165
0.734207 0.293597 2.174870 175 172 165
0.538779 0.249781 1.581016 179 176 169
0.848880 0.329820 2.572029 178 178 168
0.595926 0.267977 1.779611 182 179 170
0.836648 0.335313 2.573014 183 180 173
0.893865 0.353478 2.771604 185 182 175
0.945771 0.374028 2.970621 191 188 179
0.756201 0.327581 2.376296 190 187 178
0.510885 0.262308 1.583263 194 191 182
-0.328407 0.683103 1.854056 144 135 42
-0.336940 0.686934 1.854743 142 133 40
-0.664048 1.184733 3.506668 140 131 38
-1.592354 2.610457 8.254977 141 132 39
1.014295 0.337911 2.966639 163 160 153
1.528560 0.455036 4.551610 165 162 153
0.617538 0.255034 1.778802 165 162 153
1.321480 0.417505 3.958392 167 164 157
1.251300 0.405513 3.760746 170 167 160
0.736279 0.288728 2.175836 173 170 163
0.732818 0.290282 2.176115 173 170 163
0.792378 0.307044 2.374617 176 173 166
0.663185 0.278044 1.978424 177 174 165
0.718976 0.296499 2.177230 180 177 170
0.962663 0.361099 2.970798 182 179 172
0.948582 0.367423 2.971932 185 182 175
0.762226 0.320585 2.377045 187 184 175
0.747151 0.327356 2.378259 192 189 180
-0.367673 0.784521 2.264747 141 135 39
-0.721265 1.378428 4.326210 141 135 39
-0.338081 0.684210 1.855766 143 134 41
-0.301596 0.624314 1.649529 141 132 39
-1.944439 3.146063 10.117082 139 130 37
-1.355806 2.229043 7.020196 141 132 39
1.337684 0.403131 3.959129 162 159 150
1.072464 0.349604 3.166891 164 161 152
1.196338 0.380291 3.563714 164 161 152
0.998330 0.339739 2.969463 166 163 156
1.312743 0.414332 3.961138 170 167 160
1.173863 0.390385 3.565524 172 169 162
0.602176 0.258696 1.780971 175 172 165
0.599332 0.259973 1.781200 177 174 167
1.027445 0.369823 3.170517 180 177 170
0.526601 0.249478 1.583658 182 179 172
0.524065 0.250617 1.583862 184 181 174
0.946699 0.362927 2.973621 185 182 175
0.821144 0.332995 2.576934 188 185 176
0.749407 0.322053 2.379312 191 188 179
0.745638 0.323745 2.379615 192 189 180
1.465043 0.424454 4.357915 162 159 150
1.393569 0.413745 4.160171 164 161 152
1.387026 0.416683 4.160698 164 161 152
1.316476 0.405559 3.962879 166 163 156
1.119148 0.365754 3.368270 168 165 158
0.860281 0.310778 2.575117 172 169 162
0.914899 0.329057 2.774219 174 171 164
1.035442 0.360538 3.171511 176 173 166
0.968284 0.347890 2.973420 179 176 169
0.963590 0.349998 2.973798 180 177 170
0.702356 0.296085 2.180835 185 182 175
0.819508 0.329089 2.578401 188 185 176
0.629132 0.286162 1.983232 191 188 179
0.625979 0.287578 1.983486 192 189 180
1.332680 0.391185 3.963617 160 158 146
1.132949 0.353512 3.368898 162 159 150
1.250092 0.385818 3.766667 167 164 157
0.926296 0.318947 2.774737 169 166 159
1.111707 0.363052 3.370609 171 168 161
1.106397 0.365436 3.371037 171 168 161
1.038437 0.353500 3.172909 174 171 164
0.971094 0.341286 2.974731 176 173 166
0.842336 0.314196 2.577898 178 175 168
0.961707 0.345502 2.975487 179 176 169
0.957013 0.347610 2.975865 181 178 171
0.585673 0.259633 1.784163 183 180 173
0.878055 0.340612 2.778622 186 183 174
0.750152 0.313139 2.381721 189 186 177
0.683664 0.300541 2.183474 191 188 179
0.369887 1.809351 9.800431 206 204 192
0.373148 1.999124 10.824233 206 204 192
0.142856 0.802136 3.879136 208 206 194
0.232392 1.526874 7.968186 207 205 193
0.165464 1.212705 6.130259 205 203 191
0.067325 0.491830 2.041901 205 203 191
0.068089 0.873962 4.089970 200 198 185
0.392289 1.933955 10.623152 207 205 193
0.282386 1.528555 8.173035 206 204 192
0.150826 0.943397 4.700091 205 203 191
0.203355 1.526151 7.974486 202 200 188
0.191263 1.531582 7.975460 202 200 188
0.062908 0.490226 2.043289 202 200 188
0.105882 1.115168 5.523367 204 202 190
0.063916 1.134015 5.526747 198 196 183
0.105475 1.143344 5.731164 201 199 187
0.099426 1.183606 5.936666 201 199 186
0.092760 1.224146 6.142218 202 200 187
0.105217 1.894374 9.831485 199 197 184
0.037843 0.535441 2.251356 197 195 182
0.063264 1.500213 7.579699 197 195 183
0.252154 1.327929 7.158013 207 205 193
0.076140 0.477107 2.044289 206 204 192
0.072988 0.478523 2.044542 205 203 191
0.219803 1.602822 8.596430 204 202 190
0.119222 0.904097 4.502211 204 202 190
0.063531 0.482770 2.045304 204 202 190
0.105573 0.984617 4.913542 205 203 191
0.052826 0.561968 2.456398 199 197 184
0.049057 0.563660 2.456702 198 196 183
0.060584 0.856043 4.096701 198 196 183
0.078404 1.405962 7.172006 196 194 181
0.081793 1.813583 9.428009 195 193 180
0.070504 1.930238 10.044266 196 194 182
-0.621974 1.348559 5.177253 139 133 37
-0.506819 1.110867 4.142399 138 132 36
-0.823255 1.662125 6.424160 137 131 35
0.127062 0.708558 3.477739 206 204 192
0.208113 1.445881 7.780767 203 201 189
0.059114 0.481166 2.046692 202 200 188
0.074074 0.806043 3.892440 199 197 185
0.052642 1.073576 5.330685 196 194 181
0.051464 1.368857 6.972516 195 193 181
-0.496850 1.099294 4.143638 139 133 37
-0.223247 0.571133 1.864216 137 131 35
-0.745548 1.505737 5.805404 137 131 35
-0.671754 1.362064 5.183810 141 135 39
-1.363686 2.520227 9.959527 139 133 37
-1.276027 2.333483 9.131599 138 132 36
-1.153472 2.094223 8.095644 139 133 37
0.265725 1.771525 9.833166 205 203 191
0.066976 1.313388 6.769404 198 196 183
0.059066 1.937323 10.260446 197 195 183
-0.278097 0.702008 2.485519 140 134 38
-0.187547 0.515369 1.656955 138 132 36
-1.517273 2.718255 10.798037 138 132 36
0.222366 1.268086 6.965663 207 205 193
0.161878 0.969971 5.121764 206 204 192
0.143621 0.905886 4.712397 205 203 191
0.062889 0.472295 2.048453 204 202 190
0.056037 0.439230 1.843586 202 200 188
0.065760 0.615574 2.869898 200 198 186
0.050279 0.477958 2.049469 200 198 186
0.103838 1.285175 6.769790 201 199 187
0.039210 0.519071 2.255779 197 195 182
0.069261 1.951264 10.470115 196 194 181
0.031908 0.703062 3.283462 196 194 182
-0.332813 0.758434 2.696579 139 133 37
-0.428282 0.909737 3.320525 142 136 40
-0.448290 0.918723 3.322136 139 133 37
0.125398 0.798547 4.099650 203 201 189
0.115076 0.874765 4.511521 205 203 191
0.033302 0.625160 2.873948 196 194 181
-0.281122 0.694787 2.488232 143 137 41
-0.192118 0.511650 1.658984 140 134 38
-0.194654 0.512789 1.659188 136 130 34
-1.250568 2.382870 9.759504 138 132 36
-0.365779 0.804390 2.906089 140 134 38
-0.986014 1.762978 6.860920 138 132 36
0.172741 0.911950 4.920363 206 204 192
0.248120 1.374263 7.792983 206 204 192
0.198046 1.219549 6.768912 205 203 191
0.117904 0.759376 3.896675 204 202 190
0.149453 1.028730 5.539101 203 201 189
0.133113 1.461354 8.007867 202 200 188
0.065522 1.066424 5.545860 199 197 184
0.075237 1.558228 8.423770 197 195 182
-0.336840 0.786402 2.905195 141 135 39
-0.203279 0.513776 1.660713 140 134 38
-0.399609 0.850033 3.115871 137 131 35
0.234908 1.191337 6.769298 206 204 192
0.236869 1.260635 7.180584 205 203 191
0.139100 0.778200 4.102631 204 202 190
0.109998 0.931628 4.927862 203 201 189
0.116643 1.665525 9.247485 202 200 188
0.064320 1.829382 10.074586 194 192 179
-0.287915 0.689259 2.491247 141 135 39
-0.369298 0.795988 2.909246 139 133 37
-1.217413 2.159391 8.737762 141 135 39
-0.963505 1.729553 6.865816 141 135 39
-0.378493 0.765028 2.704264 140 134 38
0.097641 1.241326 6.783708 202 200 188
-0.908051 1.623513 6.453059 142 136 40
-1.338941 2.303371 9.369281 140 134 38
1.291679 0.177599 3.602041 98 94 23
1.147339 0.173647 3.201818 95 90 26
1.142337 0.175894 3.202221 94 86 23
0.793614 0.160569 2.200688 91 83 20
1.063897 0.176734 3.002615 84 79 15
2.579001 0.287209 7.616837 118 113 71
0.835975 0.175932 2.403200 124 121 86
0.832206 0.177624 2.403504 172 172 148
0.828437 0.179317 2.403807 233 229 217
1.087314 0.200605 3.206653 239 233 221
1.213018 0.212926 3.608376 219 211 198
0.942835 0.196716 2.806441 207 199 188
0.809593 0.187780 2.405325 173 167 153
0.805824 0.189473 2.405628 123 115 102
0.674431 0.179707 2.004363 120 114 100
0.068428 1.139624 6.171644 201 199 187
0.060341 1.177644 6.378219 200 198 185
0.038018 1.015730 5.350399 199 197 184
-0.279193 0.642374 2.287090 138 132 36
-0.213939 0.509905 1.664063 138 132 36
-1.390405 2.379391 9.789840 143 137 41
-1.588234 2.640176 10.835391 138 132 36
-1.199529 2.018564 8.127077 143 137 41
1.219879 0.169413 3.403639 98 94 23
1.145332 0.168856 3.203618 95 90 26
0.726757 0.152619 2.001181 95 85 23
1.066707 0.170129 3.003926 91 83 20
1.062013 0.172237 3.004304 84 79 15
0.909080 0.172847 2.604572 111 107 60
0.834463 0.172321 2.404556 125 122 87
0.830694 0.174014 2.404860 167 167 143
0.826925 0.175707 2.405163 230 226 214
1.281920 0.209624 3.810692 237 231 219
1.080305 0.198060 3.208856 219 211 198
0.945460 0.190545 2.807666 222 214 201
0.876462 0.187496 2.607199 214 206 195
0.936689 0.194484 2.808373 180 174 160
0.804311 0.185863 2.406985 120 112 99
0.673167 0.176687 2.005497 119 113 99
0.095750 0.504083 2.464051 207 205 193
0.123962 1.784817 10.290718 202 200 188
0.037800 0.496072 2.262693 200 198 185
0.054265 1.101343 5.969812 198 196 183
0.034872 0.667571 3.293053 198 196 183
0.036736 1.143252 6.177249 197 195 182
0.016459 1.594839 8.857203 195 193 180
-0.330397 0.729506 2.704397 139 133 37
-0.334474 0.731337 2.704725 138 132 36
-0.246597 0.555723 1.873549 142 136 40
-0.375247 0.749648 2.708009 143 137 41
-1.079331 1.814671 7.297258 144 138 42
1.356591 0.169342 3.806619 100 93 23
0.797758 0.150830 2.202621 97 89 26
1.138323 0.166310 3.205821 95 85 23
3.119727 0.253343 9.023887 92 84 21
1.060130 0.167741 3.005993 82 76 14
2.169661 0.242105 6.420770 120 115 73
0.832951 0.168711 2.405913 122 119 84
1.017886 0.186713 3.009395 236 230 218
1.208509 0.202161 3.612420 219 211 198
0.939315 0.188314 2.809597 220 212 201
0.934930 0.190283 2.809951 180 174 160
0.994417 0.197253 3.011285 123 115 102
0.091999 0.535164 2.671713 205 203 191
0.070451 0.746958 3.910203 203 201 188
0.124367 1.632268 9.471254 202 200 187
0.115841 1.737155 10.090318 201 199 186
0.070269 1.117587 6.177600 200 198 185
0.044161 0.691393 3.500069 198 196 183
0.039615 0.996609 5.355566 196 194 181
0.035930 1.402497 7.829371 195 193 180
-0.335423 0.693436 2.500011 141 135 39
-0.372805 0.743911 2.709148 142 136 40
-0.376883 0.745742 2.709476 142 136 40
-1.134985 1.894678 7.717549 138 132 36
1.077022 0.154812 3.006170 100 93 25
0.796369 0.147515 2.203867 96 88 23
0.792909 0.149069 2.204145 94 84 22
0.789448 0.150623 2.204424 92 84 21
0.990182 0.160478 2.806937 81 75 13
1.256822 0.174068 3.610369 81 77 16
3.528343 0.287307 10.439131 90 87 34
1.146583 0.190242 3.413021 237 231 219
1.271237 0.200930 3.815435 214 206 193
1.066286 0.192969 3.213261 213 205 194
0.997227 0.190649 3.012596 174 168 154
0.865036 0.183347 2.610790 128 120 107
2.827616 0.335328 8.845753 119 113 99
0.196982 1.050073 6.170446 207 205 193
0.100887 0.626537 3.291013 205 203 191
0.187064 1.254539 7.408605 205 203 191
0.078131 0.536752 2.674165 204 202 190
0.200209 1.548652 9.263586 204 202 190
0.063271 0.676766 3.500269 200 198 185
0.112371 1.521430 8.858207 199 197 184
0.088339 1.332212 7.622783 198 196 183
0.079815 1.402711 8.035923 197 195 182
0.023912 0.394426 1.647399 194 192 179
-0.471276 0.983506 3.955774 135 129 33
-0.321437 0.716201 2.706346 140 134 38
-0.325515 0.718032 2.706674 135 129 33
-1.086053 1.826305 7.511140 142 136 40
1.213487 0.154151 3.409372 98 91 23
0.794981 0.144200 2.205112 95 87 22
1.202866 0.158921 3.410227 94 84 22
0.992808 0.154307 2.808162 92 84 22
1.056363 0.158748 3.009371 81 75 13
1.181625 0.168461 3.411938 81 79 22
1.812904 0.214792 5.424372 157 157 133
1.144452 0.185155 3.414932 236 230 218
1.139142 0.187540 3.415359 214 206 193
0.935796 0.179911 2.812754 208 200 189
0.867477 0.177610 2.611928 169 163 149
0.799775 0.175031 2.411053 118 110 97
0.198911 1.071585 6.379671 206 204 192
0.242886 1.381679 8.439405 206 204 192
0.093003 0.657369 3.499614 202 200 188
0.137335 1.066256 6.178302 201 199 187
0.135038 1.133256 6.591142 202 200 188
0.169933 1.579365 9.476919 204 202 189
0.054398 0.476801 2.264757 203 201 188
0.081964 0.860233 4.738468 201 199 186
0.045200 0.447948 2.059170 199 197 184
0.088716 1.417934 8.245494 197 195 182
0.051514 1.434642 8.248490 196 194 181
-0.388309 0.741593 2.713067 141 135 39
0.797053 0.139330 2.206078 98 91 23
0.724850 0.139124 2.005465 95 86 21
0.721698 0.140539 2.005719 93 83 22
0.718545 0.141955 2.005973 91 83 21
1.207364 0.183490 3.618033 235 229 217
1.266480 0.189574 3.819700 221 213 200
0.998154 0.179548 3.015596 215 207 196
0.993460 0.181656 3.015974 178 172 158
0.925265 0.179649 2.815038 129 121 108
0.082162 0.493026 2.470083 204 202 190
0.097185 0.812614 4.533159 201 199 187
0.050314 0.409430 1.853362 202 200 187
0.091792 0.912937 5.152879 201 199 186
0.010899 1.275601 7.223680 195 193 180
0.015563 0.457670 2.062590 195 193 180
-1.042402 1.879180 8.134225 141 135 39
-0.343728 0.684297 2.504383 138 132 36
-0.748081 1.290130 5.220521 137 131 35
-0.950479 1.576829 6.475393 141 135 39
1.071372 0.141323 3.011237 97 90 22
0.998059 0.141966 2.810612 94 86 21
0.993674 0.143935 2.810965 93 85 22
0.921286 0.144162 2.610265 91 83 20
0.646434 0.138470 1.806283 81 75 13
1.199491 0.180631 3.620507 223 217 203
0.868282 0.167967 2.614534 221 213 200
0.864205 0.169798 2.614863 193 185 174
0.986883 0.179267 3.018041 133 127 113
0.603773 0.157630 1.809719 121 115 99
0.109872 0.605422 3.295204 206 204 192
0.125321 0.727615 4.120078 206 204 192
0.097262 1.127607 6.600692 201 199 186
0.006105 1.297676 7.434152 194 192 179
-0.379349 0.728288 2.715016 139 133 37
-0.235259 0.502163 1.670764 139 133 37
-0.272211 0.551041 1.880269 143 137 41
1.000685 0.135795 2.811837 99 92 24
0.927805 0.136594 2.611076 96 88 23
0.650981 0.133191 1.806849 93 85 22
0.987528 0.141703 2.812896 91 83 20
0.983143 0.143673 2.813249 82 76 14
1.041325 0.149475 3.015194 80 78 21
2.347816 0.201354 7.042582 120 117 76
2.391509 0.213662 7.245694 151 149 124
2.836068 0.237529 8.656303 221 218 203
1.261724 0.178219 3.823966 221 215 203
0.994388 0.170555 3.018974 216 208 195
0.862569 0.165892 2.616330 196 187 178
0.921746 0.171247 2.818194 126 120 106
0.144946 0.807499 4.740431 205 203 191
0.117830 0.691950 3.916093 204 202 190
0.047840 0.627588 3.301838 200 198 185
0.060893 1.068770 6.193614 199 197 184
0.022886 0.670727 3.510478 197 195 182
0.019087 0.480843 2.271001 196 194 181
0.016186 0.450214 2.064604 193 191 178
-0.006939 1.195029 6.818969 193 189 177
-0.641399 1.192584 5.010392 139 133 37
-0.796321 1.421819 6.056022 143 137 41
-0.913447 1.474422 6.065455 141 135 39
0.998925 0.131594 2.813415 99 92 24
0.652684 0.129189 1.807643 95 87 24
0.717903 0.131480 2.009122 94 86 23
0.714750 0.132895 2.009376 90 82 19
0.981383 0.139472 2.814828 81 76 12
2.452317 0.205223 7.451185 149 147 122
2.830721 0.224764 8.661098 223 217 203
1.001892 0.161842 3.019907 219 213 201
0.865010 0.160155 2.617468 222 216 200
0.924372 0.165076 2.819419 196 190 178
0.919986 0.167046 2.819772 124 118 104
0.601490 0.152181 1.811766 120 114 102
2.849143 0.279652 9.073078 137 131 119
0.077969 0.545202 2.887587 204 202 190
0.091744 0.696920 3.920135 203 201 189
0.057719 0.522716 2.682486 203 201 189
0.042885 0.560959 2.890413 199 197 184
0.039665 0.593986 3.097403 198 196 183
0.066704 1.750333 10.744291 196 194 181
0.049505 1.694895 10.332213 196 194 181
0.028959 1.040926 5.992507 195 193 180
0.019882 1.076583 6.199969 194 192 179
0.015821 0.636275 3.306055 193 191 178
0.005816 0.640768 3.306861 192 190 177
-0.310576 0.656539 2.505417 138 132 36
-0.726908 1.317229 5.639920 138 132 36
-0.687453 1.236348 5.223279 142 136 40
-0.325652 0.663310 2.506631 141 135 39
-0.227150 0.492749 1.671772 137 131 35
-0.382621 0.720476 2.717951 141 135 39
-0.421979 0.769733 2.927852 140 134 38
0.997166 0.127392 2.814993 99 91 26
0.924533 0.128783 2.614010 95 87 24
0.920455 0.130614 2.614338 92 84 21
0.916378 0.132445 2.614667 89 81 18
0.844978 0.133281 2.413585 83 75 12
3.639094 0.190080 10.875515 82 78 17
3.688775 0.198997 11.078346 91 88 33
2.056724 0.182446 6.245810 147 143 116
1.192728 0.164484 3.626572 221 215 201
0.863374 0.156249 2.618936 222 219 202
0.922612 0.160875 2.820997 193 189 177
0.792213 0.156978 2.417834 131 125 113
-0.330933 0.661392 2.508291 139 133 37
-0.752786 1.256839 5.231088 143 137 41
1.132270 0.123483 3.219415 101 93 28
0.650402 0.123740 1.809690 96 88 25
0.851004 0.126285 2.414334 93 85 22
0.914742 0.128539 2.616134 91 83 20
0.910665 0.130370 2.616462 88 80 15
3.698969 0.175042 11.083101 83 79 18
3.483122 0.179343 10.479685 87 85 28
1.190473 0.159101 3.628594 223 217 203
0.861738 0.152343 2.620403 212 209 194
0.920852 0.156674 2.822575 189 185 173
0.979350 0.161281 3.024797 134 130 119
-0.547503 1.032277 4.389368 138 132 36
-0.261866 0.564326 2.090096 137 131 35
-1.359354 2.261500 10.248889 141 135 39
-0.256867 0.531202 1.882760 141 135 39
0.857030 0.119289 2.415083 101 93 28
0.921261 0.120971 2.616944 96 88 25
0.845723 0.124367 2.415994 93 85 22
0.774879 0.125656 2.214665 90 82 17
0.771418 0.127210 2.214944 85 77 14
2.881308 0.156544 8.670118 87 85 28
0.860102 0.148438 2.621870 208 205 190
0.919093 0.152473 2.824153 187 184 169
0.914707 0.154442 2.824507 134 130 119
2.894503 0.242203 9.290158 140 136 125
-0.277164 0.598136 2.299395 138 132 36
-1.347176 2.269286 10.459913 136 130 34
-0.773588 1.340063 5.858961 141 135 39
-0.728068 1.197507 5.027157 141 135 39
-0.900878 1.427759 6.076247 142 136 40
1.264625 0.113009 3.626303 99 91 26
0.851748 0.117371 2.416743 95 87 24
0.780411 0.119232 2.215353 93 85 22
0.575171 0.120875 1.610476 94 84 22
0.840442 0.122449 2.417653 90 82 17
0.836673 0.124142 2.417957 84 76 13
3.272122 0.146924 9.885819 80 75 20
1.377570 0.152817 4.238612 231 225 209
0.858466 0.144532 2.623337 210 207 192
0.980277 0.150180 3.027797 177 173 161
0.975583 0.152288 3.028175 132 128 117
1.968126 0.189367 6.262404 133 129 118
0.461638 0.594346 4.519515 213 211 199
0.843992 1.388302 11.117053 212 210 198
0.170633 0.362911 2.057328 213 211 199
1.398493 0.106146 4.031834 97 89 24
0.714731 0.114965 2.014540 94 86 23
0.772101 0.119025 2.217155 91 82 17
0.835160 0.120532 2.419313 84 76 13
2.870615 0.131013 8.679708 79 74 19
1.472949 0.132360 4.440310 92 90 49
