ply
format ascii 1.0
element vertex 685
property float x
property float y
property float z
property uchar red
property uchar green
property uchar blue
end_header
-1.899964 0.900648 5.097803 74 71 42
-1.826546 0.876054 5.006369 30 32 22
-1.866823 0.950323 5.415145 24 26 19
-1.549787 0.700022 5.145862 143 142 133
-1.524864 0.629391 5.101722 160 155 145
-1.333845 0.652387 5.231594 229 225 216
-1.300398 0.659176 5.227679 151 151 136
-1.275494 0.626003 5.149928 74 74 65
-0.994293 0.978009 5.621907 211 209 202
-0.960899 1.097034 5.670147 250 247 237
-0.655755 1.415522 4.654090 147 143 132
0.205646 0.087981 4.065105 127 124 113
0.224908 0.146882 4.150141 172 170 160
0.235466 0.142669 4.112829 37 34 23
0.240354 0.116829 4.084953 55 53 43
0.309351 0.306612 4.206053 182 179 169
0.314900 0.287253 4.191810 36 34 23
0.328328 0.530190 4.264871 60 58 46
0.321813 0.250474 4.133604 38 35 24
0.336982 0.515798 4.282101 184 182 169
0.326376 0.303624 4.112125 69 66 56
0.340142 0.536233 4.269876 103 100 89
0.354058 0.433943 4.203030 40 38 27
0.346075 0.191856 4.029557 185 182 171
0.353537 0.253636 4.089183 39 36 25
0.353537 0.253636 4.089183 41 37 26
0.379588 0.505978 4.139344 180 176 166
0.381533 0.508131 4.153122 178 175 163
0.380885 0.464954 4.151906 194 191 180
0.378678 0.311757 4.096113 46 43 32
0.370316 0.179920 3.995542 63 61 50
0.372334 0.199562 3.988734 182 179 169
0.391768 0.451014 4.097321 32 30 17
0.391768 0.451014 4.097321 35 33 23
0.399731 0.411078 4.118587 182 180 169
0.401792 0.325800 4.079232 180 178 166
0.401792 0.325800 4.079232 183 180 169
0.390828 0.154313 3.930376 52 50 39
0.408840 0.263252 4.005887 182 179 168
0.406397 0.242622 3.942192 181 178 167
0.420981 0.212580 3.925856 175 173 162
0.420981 0.212580 3.925856 185 183 173
0.430339 0.192265 3.898037 39 36 25
0.430090 0.168722 3.872599 181 178 167
0.436004 0.233876 3.914017 185 182 170
0.436004 0.233876 3.914017 184 181 170
0.371613 0.263028 3.295476 205 202 190
0.453740 0.232394 3.898214 36 34 21
0.459398 0.323068 3.928497 177 174 162
0.456754 0.213823 3.866930 32 30 16
0.450771 0.167940 3.810322 182 179 167
0.458991 0.227360 3.852578 186 183 170
0.466712 0.295080 3.907783 183 180 169
0.478639 0.339473 3.912000 193 191 178
0.474149 0.302875 3.859938 179 176 165
0.478048 0.261172 3.822542 178 175 164
0.480148 0.239255 3.817215 41 39 28
0.480148 0.239255 3.817215 49 46 35
0.482739 0.210936 3.816249 180 177 165
0.508692 0.286973 3.779400 188 185 174
0.527347 0.185685 3.675997 40 36 23
0.542099 0.176439 3.544200 177 174 163
0.563743 0.194513 3.569096 165 163 150
0.566726 0.195971 3.583447 172 170 159
0.565114 0.181400 3.539679 167 165 154
0.571068 0.202192 3.549991 55 52 39
0.569595 0.189012 3.512736 38 35 24
0.585781 0.180744 3.465615 172 170 160
0.585781 0.180744 3.465615 167 165 154
0.596998 0.197523 3.431723 177 175 163
0.607226 0.170678 3.421669 175 172 161
0.608930 0.185456 3.387031 85 82 70
0.608930 0.185456 3.387031 80 78 67
0.540373 0.298182 3.883351 53 51 38
0.570239 0.182435 3.531660 106 103 91
0.503111 0.308999 3.920315 36 33 22
0.514736 0.288335 3.912235 75 74 63
0.551380 0.171400 3.520960 31 28 17
0.537393 0.190081 3.648816 174 172 161
0.537393 0.190081 3.648816 171 169 157
0.488361 0.293451 3.943142 39 36 24
0.354395 0.429801 3.926104 190 187 176
0.493163 0.270180 3.922780 179 177 166
0.460476 0.292874 3.991112 36 33 22
0.347394 0.414627 4.000286 185 182 171
0.462393 0.238845 3.952425 41 38 27
0.446938 0.241693 3.986015 193 190 180
0.404335 0.298923 4.067619 186 184 172
0.408202 0.288649 4.059816 43 40 28
0.373309 0.299542 4.104570 185 183 172
0.373309 0.299542 4.104570 190 187 176
0.446974 0.168667 3.860179 38 35 24
0.321263 0.269630 4.126206 182 179 167
0.321263 0.269630 4.126206 179 177 165
0.321972 0.270176 4.136296 181 177 166
0.321972 0.270176 4.136296 183 181 170
0.315467 0.244578 4.139552 180 176 166
0.351968 0.194466 4.090231 179 177 165
0.300447 0.137172 4.022227 174 171 158
0.264387 0.153078 4.084832 176 174 163
0.265527 0.153630 4.103881 168 165 155
0.242586 0.134259 4.099232 154 151 140
0.231171 0.117998 4.096218 188 185 174
0.234626 0.104479 4.072783 38 35 25
0.239279 0.095136 4.042712 175 171 162
0.515140 0.304459 3.876870 189 186 176
0.362625 0.423316 3.846587 168 165 154
0.488302 0.313474 3.945572 183 181 169
0.292783 0.453823 3.735202 179 176 164
0.265252 0.445482 3.707236 96 93 82
0.305153 0.419265 3.877906 182 179 168
0.485707 0.239166 3.951445 181 179 167
0.401994 0.325106 4.068572 178 175 164
0.452591 0.266830 4.019159 37 34 23
0.281060 0.388657 3.959219 176 173 160
0.281060 0.388657 3.959219 178 175 163
0.421920 0.271824 4.081991 185 182 172
0.400164 0.255513 4.053177 33 30 19
0.407065 0.169616 3.871336 34 32 21
0.325890 0.252978 4.158342 44 41 30
0.242278 0.146250 4.013474 36 33 23
0.221829 0.141944 3.974439 179 177 166
0.240422 0.116794 3.923315 183 180 170
0.187574 0.092604 3.877070 185 183 172
0.619323 0.193781 3.463551 155 152 141
0.559740 0.170166 3.558291 37 33 24
0.423989 0.381034 4.004087 41 38 27
0.407570 0.387097 4.101612 35 33 22
0.338718 0.467165 4.305118 84 79 68
0.524661 0.164729 3.615044 166 166 153
0.524661 0.164729 3.615044 159 156 145
0.358704 0.413309 4.243661 45 42 30
0.478485 0.219311 3.783380 182 180 168
0.392257 0.255609 4.003003 44 41 29
0.353173 0.295770 4.143455 180 177 167
0.342368 0.305087 4.206839 66 63 53
0.367724 0.229254 3.910386 174 172 161
0.341280 0.284581 4.170690 42 40 29
0.377135 0.205257 4.022195 180 178 166
0.416588 0.130703 3.855284 39 37 25
0.333472 0.300901 4.540818 176 173 161
0.259582 0.104890 4.154258 190 185 174
0.230284 0.083332 4.198943 180 177 166
0.201149 0.079423 4.214814 182 179 169
0.373589 0.433676 4.052625 42 39 27
0.406808 0.140382 3.837451 175 173 163
0.406808 0.140382 3.837451 168 166 156
0.349429 0.294390 4.138568 186 183 173
0.315934 0.288611 4.184591 38 34 24
0.285532 0.190435 4.021125 63 61 49
0.289293 0.267417 4.217028 59 56 43
0.293775 0.141993 4.058624 181 179 167
0.278758 0.166573 4.077698 35 32 21
0.207995 0.205123 3.108689 180 178 168
0.207995 0.205123 3.108689 175 173 164
0.212569 0.214133 3.211194 175 172 161
0.212569 0.214133 3.211194 182 178 167
0.637634 0.190011 3.767270 47 46 34
0.641104 0.183062 3.817237 132 130 119
0.448478 0.242798 3.991981 181 179 168
0.670976 0.192789 3.655862 183 180 167
0.372343 0.399783 3.920256 43 41 30
0.374322 0.202382 4.020801 175 174 162
0.313782 0.302763 4.082199 148 144 136
0.320383 0.266953 4.065138 176 174 163
0.294802 0.291863 4.089014 52 48 40
-1.784983 0.972369 4.899309 53 53 47
-1.757345 1.079623 5.063341 230 227 219
-1.671097 0.743679 4.564886 221 220 201
-1.636359 0.749600 4.665115 124 122 106
-1.579291 0.769252 4.787961 31 32 27
-1.420030 0.787525 5.110014 232 228 221
-1.378252 0.618740 4.843445 234 230 220
-1.318363 0.848816 5.292244 229 226 215
-1.235477 0.771037 5.065195 191 188 172
-1.097106 0.945593 5.612233 217 212 207
-1.084009 1.025404 5.888453 81 80 72
-1.014076 0.971921 5.749339 223 220 212
0.266742 0.383153 3.311047 178 176 165
0.244395 0.140583 4.162154 136 135 121
0.372229 0.284239 3.831013 184 181 170
0.400026 0.251973 4.079146 166 164 154
-1.369350 0.635448 5.565310 232 230 221
-0.360593 1.638263 5.206591 36 33 18
0.371339 0.475778 3.976219 179 177 165
0.180451 0.084911 3.994688 187 184 172
0.364182 0.386612 3.879073 183 181 170
0.424994 0.368382 3.895697 183 182 171
0.378366 0.206869 3.973661 73 70 58
0.450503 0.285110 3.936711 40 37 26
0.472332 0.324241 3.969452 54 52 41
0.439963 0.153338 4.011296 54 52 40
0.520408 0.283214 3.964025 98 95 85
0.617600 0.218780 3.999049 75 71 58
0.617600 0.218780 3.999049 75 71 58
0.699800 0.229146 4.091950 187 185 174
0.465200 0.303789 3.892497 178 175 164
0.445125 0.349838 4.000828 180 177 165
0.462981 0.236785 3.845686 178 176 165
0.425231 0.191763 3.877850 33 30 18
0.355100 0.269936 3.372582 51 48 37
0.355100 0.269936 3.372582 53 51 40
0.341346 0.193238 3.996560 182 179 169
0.331112 0.148970 4.161214 66 62 52
0.201699 0.056722 4.090690 109 106 96
0.329261 0.440724 3.977513 46 42 31
0.445709 0.306199 3.990618 182 180 168
0.502131 0.215095 3.961228 190 187 176
0.179439 0.071479 3.655367 53 50 39
0.331298 0.280077 4.116486 31 29 19
0.346156 0.293055 4.129741 184 182 172
0.390864 0.247083 3.988256 24 21 10
0.382078 0.484790 4.365534 39 37 26
0.386471 0.526317 4.354356 56 52 39
0.413136 0.161186 3.714829 181 179 168
0.462256 0.231441 3.897932 183 180 168
0.331314 0.279410 4.112404 27 26 15
0.329160 0.388197 4.243350 190 187 175
0.375845 0.478599 4.263969 41 38 27
0.592250 0.194723 3.573340 168 164 153
0.592250 0.194723 3.573340 170 167 156
0.560759 0.176076 3.704910 30 27 17
0.466993 0.278211 3.859283 38 30 21
0.466993 0.278211 3.859283 38 30 21
0.355525 0.429587 4.070619 44 41 29
0.402540 0.290281 4.019411 47 45 33
0.432043 0.219719 3.928397 41 36 25
0.310587 0.115069 4.321382 39 36 25
0.426845 0.275787 3.980831 22 21 10
0.395061 0.180893 3.991920 182 179 169
0.415597 0.071750 3.960054 188 183 173
0.222615 0.166070 1.774144 184 182 171
0.218227 0.110170 4.121127 31 28 18
0.230072 0.108341 4.070926 177 173 162
0.406706 0.246695 3.951769 179 177 167
0.411875 0.216750 3.888002 186 185 176
0.411875 0.216750 3.888002 184 182 172
0.445436 0.246024 4.116180 183 180 170
0.465571 0.295153 4.041039 38 35 23
0.388644 0.215139 4.052668 42 40 29
0.400043 0.358124 4.064318 46 41 30
0.210703 0.084385 3.851664 36 30 19
0.210703 0.084385 3.851664 36 30 19
0.516242 0.178243 3.603859 33 30 18
0.387130 0.215661 4.035518 75 70 59
0.586195 0.150629 3.545246 182 177 166
0.398497 0.254534 4.042506 37 35 24
0.413025 0.168127 3.994873 184 182 171
0.277239 0.296513 4.184946 183 180 170
0.385668 0.302070 4.073122 180 176 163
0.288295 0.103691 4.209755 175 173 162
0.326722 0.336450 3.943703 64 62 51
0.353315 0.344109 3.925781 74 71 62
0.669728 0.555831 5.675904 72 68 55
0.219836 0.122956 4.074902 174 171 160
0.266110 0.141719 4.051190 176 174 162
0.434129 -0.542872 1.413362 174 165 62
0.566591 0.107116 1.473932 91 86 57
0.526667 0.092880 1.388031 54 51 28
0.551499 0.120623 1.455187 231 228 212
0.540067 0.120308 1.425068 232 228 210
0.540067 0.120308 1.425068 231 228 213
0.547150 0.092150 1.490103 133 129 116
0.450451 -0.610425 1.795638 169 160 57
0.366590 0.453431 1.258588 230 223 210
0.335365 0.498478 1.367188 236 231 220
0.351105 0.515112 1.565198 229 225 216
0.584072 0.169228 3.239529 64 61 51
0.193345 0.317502 1.230300 170 166 119
0.585318 0.171239 3.504895 181 179 171
0.567137 0.173664 3.537823 189 186 175
0.499319 -1.416298 5.543487 157 149 54
0.476458 0.214847 3.774913 191 188 178
0.455967 0.278228 3.559784 50 47 35
0.439127 0.328805 3.577121 71 66 55
0.439127 0.328805 3.577121 76 72 61
0.474512 0.081172 4.250143 38 32 23
0.474512 0.081172 4.250143 37 31 21
0.422105 0.251970 4.059211 177 175 165
0.412821 0.178218 4.137040 191 188 176
0.400035 0.305743 3.825482 64 60 49
0.400035 0.305743 3.825482 63 59 47
0.369226 0.357780 3.682204 75 70 57
0.321345 0.406224 3.591321 51 47 35
0.336322 0.402410 3.734107 156 153 141
0.335441 0.219760 4.389666 187 184 171
0.296771 0.426127 3.625091 190 187 175
0.293881 0.432801 3.659593 183 179 167
0.522910 0.155439 3.399236 53 51 39
0.410821 0.180705 3.983652 79 75 64
0.346906 0.280175 4.078563 60 58 46
0.351986 0.421157 4.025146 186 184 172
0.240393 0.143523 3.886784 36 33 22
0.323846 0.434148 3.978282 181 178 167
0.348163 0.284722 4.206063 38 35 14
0.154375 0.065391 3.938388 195 193 182
-0.739147 -0.714725 5.675386 235 232 222
0.344080 0.199907 3.993998 186 183 172
0.251646 0.102737 4.044622 29 27 17
0.307366 0.293143 4.060924 117 115 104
0.313970 0.260625 4.036458 184 181 170
0.235493 0.193230 4.058862 183 179 166
0.350554 0.212240 3.962711 178 175 163
0.238719 0.100981 4.123781 46 43 33
0.657156 0.333816 5.775146 168 165 153
0.499070 0.490669 6.456765 46 44 33
0.425102 0.141671 3.917977 77 75 62
0.462334 0.156454 3.768924 180 178 163
0.594531 0.185822 3.412631 173 170 156
0.333216 0.549263 4.273061 176 173 161
0.358613 0.482229 4.167140 45 43 31
0.540564 0.357285 6.091602 165 164 154
0.643736 0.433404 6.540989 48 44 31
-0.780046 0.715785 4.127796 240 237 224
-0.779775 0.686402 4.323430 209 203 196
-0.640817 1.074769 4.518537 192 189 172
-0.201864 0.687908 2.290689 211 207 192
-0.233435 0.833057 2.818208 212 209 195
0.344038 0.548914 4.322538 58 56 46
0.493682 0.293620 3.891570 174 171 159
0.275951 0.134213 4.048582 46 41 27
0.300542 0.183860 2.766309 182 178 166
0.393270 0.252736 4.016308 52 49 36
0.401602 0.285409 4.032689 54 51 40
0.434334 0.267856 3.943335 154 154 142
0.443747 0.266252 3.925499 87 84 71
0.538858 0.181732 3.725397 107 104 92
0.575465 0.192242 3.543994 51 48 36
0.584898 0.170850 3.454098 81 78 65
0.544190 0.198986 3.493197 168 166 154
0.382198 0.380517 3.729785 67 64 53
0.392304 0.376325 3.788877 46 44 32
0.461602 0.291058 3.797683 39 33 22
0.407779 0.192217 3.844756 173 171 160
0.323284 0.438432 3.672818 92 89 77
0.201361 0.133643 4.047759 188 184 172
0.387911 0.251060 4.017266 78 75 65
0.458623 0.255012 4.259692 125 123 111
0.468722 0.254250 4.325446 123 121 109
0.335020 0.197706 3.953993 185 182 171
0.345179 0.244758 4.070065 191 188 176
0.376552 0.427386 4.087474 93 91 82
0.325597 0.227876 3.543275 59 55 43
0.403206 0.286283 4.049328 59 56 47
0.351737 0.189627 3.887524 48 45 33
0.422286 0.391378 4.030819 65 64 53
0.565093 0.266089 3.829438 57 55 43
0.565093 0.266089 3.829438 61 57 46
0.427885 0.460380 4.214495 46 44 31
0.494528 0.336599 3.979070 40 37 25
0.956027 0.107157 6.195612 194 191 179
0.391029 0.168486 3.889238 185 182 171
0.471397 0.320736 3.969569 45 42 31
0.557928 0.372216 4.636495 165 163 151
0.352959 0.191930 3.710444 177 176 166
0.411113 0.262351 4.017987 40 37 26
0.363762 0.364368 4.250557 184 182 171
0.274199 0.126460 4.162511 85 82 70
0.556103 0.161911 3.543947 156 153 139
0.272619 0.137055 4.225044 48 44 29
0.431936 0.578879 5.483074 93 90 80
0.372334 0.183867 4.020055 47 44 31
0.417917 0.454358 4.042647 183 180 168
0.552789 0.172667 3.536995 62 58 45
0.617353 0.151005 3.789938 169 165 157
0.307296 0.459996 4.029670 104 99 87
0.436314 0.268921 4.040181 39 36 26
0.427186 0.247674 3.940454 191 190 180
0.394042 0.186699 3.856948 70 68 56
0.283987 0.414970 3.587385 84 81 71
0.212477 0.149703 4.018920 69 66 56
0.291073 0.125556 3.993934 184 182 170
0.332373 0.149570 4.117697 171 168 156
0.396660 0.220474 5.177673 177 173 163
0.654163 0.174767 4.016179 127 125 116
0.707961 0.206219 4.227657 96 90 78
0.623678 0.176798 4.023686 47 42 32
0.529866 0.205177 3.860568 63 60 50
0.614481 0.321649 4.241132 216 211 203
0.576702 0.251761 4.184914 206 201 194
0.389763 0.238882 4.025211 188 184 174
0.428797 0.146345 4.092975 69 68 58
0.428797 0.146345 4.092975 81 80 70
0.402669 0.173115 3.952042 181 179 168
0.422519 0.314290 4.113193 224 220 208
0.231236 0.181203 4.194727 172 169 157
0.420234 0.263675 3.919526 106 102 93
0.185795 0.059466 3.705297 184 181 170
0.480903 0.239907 3.927531 176 173 163
0.468450 0.263039 3.972943 167 166 154
0.446753 0.178544 3.774940 176 174 163
0.335941 0.270726 4.225355 175 172 161
0.450164 0.144197 3.895391 185 182 171
0.628956 0.302207 4.106004 40 37 25
0.223968 0.128220 4.179902 35 33 23
0.259317 0.160110 4.130137 28 25 15
0.298995 0.097597 2.691578 177 174 163
0.383765 0.235398 4.034939 182 178 169
0.475344 0.161304 3.997390 69 65 54
0.475344 0.161304 3.997390 60 58 46
0.546874 0.200844 3.939257 55 52 41
0.381609 0.148517 3.868421 51 49 39
0.262001 0.103435 3.013941 184 181 168
0.580058 0.162456 3.402624 135 133 120
0.111922 0.169549 3.226346 159 155 143
0.196335 0.192640 3.352924 97 93 82
0.549523 0.397509 4.193865 156 152 135
0.253650 0.167416 3.240957 170 166 154
0.311863 0.128601 3.082536 179 176 163
0.469130 0.137340 3.258362 159 155 143
0.467402 0.335702 3.507207 164 159 148
0.583719 0.197290 3.461374 164 158 148
0.365505 0.221825 4.011613 49 48 37
0.365505 0.221825 4.011613 55 53 42
0.295384 0.308740 4.198338 40 36 27
0.601237 0.192349 3.802230 21 18 8
0.298029 0.277450 4.189043 179 178 168
0.241926 0.208280 3.880247 55 52 43
-0.942812 -0.273198 4.028951 135 133 127
-0.942812 -0.273198 4.028951 135 133 127
-1.400581 -0.094869 4.362790 233 231 224
-1.391962 -0.141610 4.306241 220 219 212
-1.669605 -0.196030 4.490781 217 217 206
-1.678000 -0.242292 4.546705 76 77 64
-1.670075 -0.272883 4.465461 235 235 226
-1.709454 -0.410981 4.490521 227 227 216
-1.983368 -0.447256 4.636544 59 59 50
-1.983368 -0.447256 4.636544 89 88 75
-2.212510 -0.631701 4.455890 36 40 35
0.336234 0.167004 3.971138 195 192 180
0.387155 0.132516 3.946851 42 40 30
0.391974 0.251243 3.998813 24 22 11
0.439697 0.168570 3.805822 28 25 14
0.543597 0.149334 3.643893 33 30 17
0.409909 0.227656 3.942094 24 21 10
0.362045 0.426313 4.036329 186 183 172
0.210887 0.120690 4.100792 41 39 29
0.297315 0.292195 4.175265 41 39 26
0.398700 0.405166 3.876528 54 51 39
0.482553 0.225739 3.492360 168 167 154
-1.446541 -1.744736 3.780467 89 85 44
-0.730715 -0.839847 4.397480 189 185 173
-0.624632 -0.728264 4.332837 248 246 233
0.189148 0.054402 4.034869 149 146 138
0.268060 0.105702 4.063032 52 49 37
0.340110 0.278440 2.658683 167 163 151
0.271589 0.285686 4.197020 198 196 183
0.596080 0.151879 3.500297 159 156 145
0.379414 0.461818 4.121423 161 156 144
0.342999 0.489624 4.220920 164 159 147
0.692477 -1.172323 3.888915 108 104 72
0.566799 0.193826 3.612795 167 164 155
0.536572 0.147767 3.719559 55 52 39
0.496593 0.189412 3.727055 162 161 151
-1.343887 -1.437225 3.665622 88 88 36
0.425645 0.119560 3.692153 42 39 29
0.425645 0.119560 3.692153 29 25 14
0.617555 0.157057 3.520909 151 146 135
0.606746 0.172574 3.513194 176 173 162
0.216140 0.140919 4.047757 173 171 159
0.293786 0.198304 4.114285 188 186 174
0.310366 0.191402 4.063071 181 178 164
0.327241 0.457678 3.979064 51 50 38
0.359851 0.136727 3.865834 33 31 17
0.359851 0.136727 3.865834 43 41 29
0.387921 0.345706 4.084775 180 178 166
0.404869 0.419021 3.839461 175 173 161
0.187446 0.034553 4.035226 182 179 167
0.191727 0.059056 4.064464 52 50 39
0.221333 0.166730 4.172611 173 169 158
0.380573 0.171566 3.874646 23 21 11
-0.420236 0.278400 1.302259 60 58 48
-0.420236 0.278400 1.302259 60 58 48
-0.862737 0.671212 6.051661 160 155 143
-0.799973 0.710720 5.968221 232 227 214
0.430895 0.414497 4.184467 54 50 41
0.397572 0.450146 4.175121 165 162 151
0.497186 0.299765 3.831382 139 137 125
0.431066 0.249371 3.983496 180 179 169
0.393370 0.214709 3.984568 188 185 174
0.456673 0.250946 3.903924 169 167 155
0.232608 0.071179 4.083822 180 178 168
0.198027 0.047725 4.103263 161 160 151
0.409772 0.139778 3.828329 174 171 160
0.439224 0.140535 3.787262 171 170 158
0.569694 0.176982 3.485231 150 148 136
0.692350 -0.249187 3.061901 97 93 81
0.624598 0.195411 3.534762 179 175 164
0.307569 0.311907 3.491057 82 80 71
0.318376 0.283463 3.578628 182 180 170
0.391640 0.139212 3.925822 46 44 33
0.475652 0.276014 3.804437 185 183 172
0.370686 0.240317 4.009309 41 38 30
0.366855 0.295668 3.845249 185 183 171
0.286072 0.042423 1.757742 184 182 169
0.294955 0.055387 1.877713 193 192 181
0.325932 0.112795 2.539971 192 189 177
0.500524 0.336626 3.788601 98 96 85
0.402630 -1.919081 3.839482 240 237 228
0.436092 -1.945915 3.832185 50 47 34
0.994801 -0.897645 2.750393 230 228 219
0.994504 -0.897710 2.746437 237 235 227
1.229471 -1.252024 3.151623 229 228 219
0.391906 0.398984 4.036726 171 169 161
0.490803 0.268394 3.766301 161 158 147
0.481708 0.263246 3.715542 164 162 151
0.412044 0.139873 3.899597 40 38 28
0.576587 0.166978 3.605094 63 60 49
0.350563 0.167848 3.906084 27 26 14
0.345273 0.112257 6.116404 179 175 166
0.305444 0.185469 3.002128 182 178 166
0.406541 0.216288 3.914461 36 34 23
0.421324 0.273735 4.094317 185 182 171
0.348048 0.083019 3.316186 107 101 91
0.430951 0.284637 4.071218 175 171 161
-0.002791 -1.064694 3.191339 227 222 209
0.073286 -1.130455 3.090746 54 49 38
0.995243 -0.543693 2.644939 214 212 203
0.808889 -0.838306 2.399688 75 71 65
0.049505 -0.588919 1.693604 172 166 118
0.476181 -0.603975 1.377583 55 53 47
0.426199 -0.545765 1.387772 241 239 234
0.634991 -0.545751 1.551339 216 215 211
0.608755 -0.497801 1.467348 219 219 212
0.713571 -0.533941 1.779155 175 174 157
0.770221 -0.541509 1.877055 195 195 185
0.713059 -0.401452 1.785973 225 224 215
0.724673 -0.367146 1.805242 226 222 211
0.258183 0.293890 2.988046 169 167 156
0.429477 0.236389 3.269207 28 25 14
0.579682 0.189165 3.495097 180 178 169
0.566318 0.167766 3.280038 67 65 54
0.809426 -0.174253 1.890832 35 34 22
0.243228 0.307636 4.263962 182 180 167
0.247062 0.078214 4.051282 177 174 163
0.359489 0.335373 4.018025 184 182 170
0.384352 0.245885 3.967455 63 61 40
0.346415 0.545167 4.432015 59 57 45
0.620679 0.147102 3.978179 52 48 37
0.620679 0.147102 3.978179 52 48 37
0.349823 0.222775 3.542450 41 38 28
0.380395 0.288490 4.001792 47 45 31
0.408477 0.466833 4.182256 196 193 182
0.563100 0.268280 5.364853 41 39 27
0.615698 0.189789 3.847186 184 182 172
0.380901 0.209808 3.827797 177 175 167
0.302636 0.224634 4.115048 188 186 173
0.548776 0.216935 3.597260 164 162 153
0.623966 0.233504 4.225964 177 175 163
0.249978 0.278718 4.158953 171 167 156
0.325681 0.290131 4.189828 188 186 174
0.303058 0.436785 3.699382 196 193 180
0.188671 0.105953 3.936808 174 171 159
0.315107 0.247910 4.082774 55 50 39
0.264582 0.095451 4.944600 18 14 2
0.571089 0.156973 5.575237 171 167 153
0.419130 0.254517 3.832857 190 188 176
0.419130 0.254517 3.832857 189 187 175
0.468942 0.319999 3.787207 23 20 8
0.395912 0.467576 4.116336 41 38 26
0.430497 0.418014 3.965066 39 37 25
0.437448 0.414993 4.006989 55 53 41
0.502418 0.165088 3.735880 165 162 151
0.418535 0.433415 4.180761 42 40 29
0.526641 0.338803 3.756898 163 161 149
0.239565 0.087162 3.985607 159 156 146
0.232418 0.123080 4.029871 86 83 72
0.355356 0.252709 3.684863 158 156 144
0.480337 0.263181 3.726766 18 15 4
0.377266 0.289389 4.113726 53 52 40
0.377266 0.289389 4.113726 53 52 40
0.328046 0.329604 4.225247 185 183 172
0.343101 0.251474 3.842578 170 168 158
0.530217 0.343458 4.171819 70 68 59
0.557074 0.317568 3.761261 192 189 176
0.539290 0.323279 3.941453 188 186 174
0.371695 0.231414 3.498929 150 147 136
0.329475 0.286147 4.176018 183 181 169
0.423407 0.225459 3.271149 181 178 168
0.398655 0.198765 2.696148 195 193 181
0.324314 0.268199 3.541525 50 47 36
0.228808 0.292151 2.815103 159 155 145
0.280986 0.269624 2.951567 63 61 50
0.343706 0.242235 3.103497 113 110 101
0.212523 0.097878 3.973440 188 186 175
0.404430 0.257812 4.033014 188 185 174
0.375952 0.550193 4.458374 69 67 55
0.577327 0.197128 3.539802 185 182 172
0.393495 0.292410 4.082171 63 60 47
0.266730 0.176427 4.253719 38 36 22
0.353914 0.399374 4.405177 199 197 185
0.368922 0.465158 4.314201 34 32 20
0.390321 0.408351 4.324948 204 203 191
0.587187 0.180760 3.249037 181 179 166
0.458021 0.328923 3.898732 182 180 168
0.304998 0.269069 3.171377 184 182 170
0.233351 0.055645 4.379814 189 186 176
0.486815 0.282049 3.864870 41 40 29
0.397885 0.320616 4.166932 185 183 171
0.254896 0.149400 3.803170 55 54 42
0.351217 0.273021 3.429051 29 27 16
-0.983019 1.475598 5.716232 119 110 11
-0.014283 -0.281248 3.813802 76 72 44
0.009197 -0.314506 3.829531 214 210 194
0.009197 -0.314506 3.829531 214 210 194
0.156228 -0.422851 3.329435 141 137 108
0.177470 -0.435949 3.319392 234 230 220
0.176381 -0.416009 3.380200 144 140 128
-0.157252 1.567001 5.022984 142 137 44
0.262481 -0.540887 3.237242 140 133 47
0.239546 0.124054 4.329153 28 25 15
0.287235 0.253467 4.268872 177 172 161
0.303679 0.129833 4.149377 188 184 172
0.295138 0.245495 4.147561 173 170 158
0.326853 0.113525 4.235419 181 179 167
0.179162 1.647644 4.785522 168 162 94
0.890142 -0.524993 3.622076 130 126 113
0.893240 -0.489577 3.642155 233 227 220
0.932916 -0.475933 3.848892 128 125 115
0.934028 -0.446677 3.877109 230 226 217
0.950515 -0.495090 3.807963 150 145 139
0.994254 -0.474326 3.786890 230 226 216
1.047513 -0.502162 3.781109 75 74 71
1.450904 0.139928 4.023830 82 82 61
1.554380 -0.126496 4.009952 233 228 216
0.644416 0.397864 5.077338 40 38 26
0.563369 0.172090 6.280356 136 134 122
0.335405 0.286550 2.842346 165 163 151
0.401764 0.241909 3.893398 181 180 169
0.372925 0.226667 3.559071 184 182 171
0.557862 0.295477 3.857586 197 195 183
0.373248 0.150062 3.865265 145 143 132
0.373248 0.150062 3.865265 144 142 130
0.539018 0.191401 3.640427 175 173 161
0.206465 0.195128 1.765125 191 189 178
0.204814 0.194260 1.777254 190 188 177
0.341635 0.224919 3.220673 181 179 167
0.332174 0.099821 3.987311 198 194 181
0.384523 0.580688 4.607906 72 68 59
0.116409 0.930603 5.094149 153 151 140
0.116409 0.930603 5.094149 153 151 140
0.531767 0.271316 3.834028 43 41 29
0.428407 0.214791 3.803373 183 181 169
0.555176 0.163046 3.465845 179 177 164
0.251166 0.307979 2.410688 198 196 185
0.337389 0.311120 4.021559 30 28 16
0.265509 0.069379 4.195276 174 170 158
0.217058 0.073122 4.396750 174 170 161
0.355644 0.329166 4.181545 76 75 66
0.412993 0.419158 4.196354 176 174 167
0.406486 0.430008 4.214069 84 82 75
0.189798 0.189099 3.543916 178 177 164
0.554266 0.278155 3.710715 184 182 170
0.330480 0.389335 4.263420 179 176 166
1.968905 0.606964 6.028303 97 93 84
1.624100 1.344811 5.781919 245 241 235
0.122962 -0.663640 3.461920 133 129 58
1.473860 1.650490 6.080431 228 225 217
1.327576 1.513149 5.692537 134 130 122
0.863208 0.910774 5.108857 243 240 232
0.863208 0.910774 5.108857 243 240 232
0.863208 0.910774 5.108857 243 240 232
0.246927 1.367808 5.393979 78 76 64
0.131767 1.580893 5.873142 205 201 174
0.554480 0.263263 3.891924 196 194 182
0.401704 0.107932 3.869858 130 124 113
0.190702 0.093827 4.017517 90 87 76
1.768015 -0.291280 3.980365 51 47 35
-0.038704 -1.069963 1.926763 233 229 218
-0.030983 -1.029518 1.934696 43 41 30
-0.030983 -1.029518 1.934696 43 41 30
-0.033145 -0.977594 1.967547 170 167 154
-0.033145 -0.977594 1.967547 170 167 154
-0.074492 -1.047487 2.075226 98 95 79
-0.089191 -0.663488 1.554030 75 70 59
-0.135090 -0.761991 2.833288 44 41 26
-0.154417 -0.774603 2.926238 164 160 146
0.482196 0.228658 3.220647 166 160 146
0.186660 0.123649 3.725129 70 69 58
0.146756 0.186530 3.346318 146 140 129
0.644037 0.218248 4.013299 87 83 71
0.644037 0.218248 4.013299 87 83 71
0.602951 0.254553 4.234664 175 171 159
0.657331 0.312397 4.514827 88 83 71
0.227972 -1.185900 3.566037 109 104 71
